ply
format ascii 1.0
element vertex 852
property float x
property float y
property float z
end_header
23.072562141576295 25.34651825681655 245.17358105788546
23.919296609937525 25.395213133400706 245.5602285980248
24.81749630776931 25.452404628204143 246.01616447818768
25.61634826396006 25.488061957346222 246.29127473881857
26.47624143890967 25.54452789447743 246.73929565224745
27.379251877641092 25.597581447961254 247.15457918213954
28.232501296244024 25.6395093750944 247.4748254798357
29.086942402792307 25.680400077869134 247.783341746678
29.953909379532245 25.73268495505433 248.18479047126095
30.81134816668011 25.77190991906014 248.47174997529407
31.723140197348147 25.820328837265905 248.82909565454293
32.5840164885686 25.858425160842643 249.09627017210715
37.04628382640303 26.080643801785264 250.57910886698417
37.92408593648912 26.120150229046796 250.8051636911945
38.80607188184648 26.160781864519166 251.0275750513716
39.708505632222796 26.21542078722028 251.35326529257767
40.601284377496945 26.259333776413314 251.57174051046837
41.558417594434104 26.315928295010757 251.86860057703947
42.46580917786174 26.364936533529143 252.0885134942072
-24.45940924940275 16.208360010713477 168.36762045167762
-24.067237866261884 16.29254582925466 169.097745112372
-23.66032214004826 16.39212532482669 169.95534054845152
-23.281303171583577 16.497446354491913 170.8578196470557
-22.904828544239507 16.610598342763787 171.82376566910412
-22.529613011277334 16.731029829748937 172.84884008415287
-22.150600327793754 16.853742248655276 173.89032436043044
-21.77445548852817 16.987039436537035 175.02014404359366
-21.37270152398317 17.130867752091767 176.23685032829206
-20.967637156163676 17.280393942381206 177.50010270840923
-20.581821760991726 17.429590982643713 178.75981266667696
-20.188154098978213 17.57848551735445 180.01505800252687
-16.723422260393775 18.91280651797023 191.2433984609901
-16.259109495152465 19.082324206793455 192.6682077386138
-15.784768543210658 19.251534469208107 194.09009181196535
-15.327727076391604 19.410239527833248 195.42315315605185
-14.806639331376823 19.58654727314243 196.90355045976324
-14.329131820050543 19.744755620706183 198.23252724905805
-13.786569118385458 19.918806731219398 199.69332434872248
-13.261003351839005 20.082557925726466 201.06771810305497
-6.544090520875005 21.832465921229762 215.7235445308007
-5.867977190090486 21.977319167435994 216.93339230986902
-5.217224431588175 22.108790167754147 218.03063728426832
-4.524019046328393 22.247599979824454 219.1885027267133
-3.822430151738784 22.383387279401045 220.320346450554
-3.1127357875652635 22.516137644032536 221.42603822834766
-2.434161867112276 22.64134802588987 222.4683419672021
-1.7094238145184448 22.76828868837214 223.52398267955982
-1.0146135397849232 22.881492535199847 224.46407715460398
-0.2760602612246853 23.002333968058583 225.4672148857358
0.46730019360762204 23.127486951443263 226.50618988448275
1.938394669784691 23.343985901161155 228.2984487944206
2.7021007035042435 23.453193117014987 229.20149505806924
3.4715086416298013 23.5594951029951 230.07959315863087
4.246364163939753 23.662925994702796 230.93306013827993
5.026092401353364 23.772362529682447 231.83687043057128
6.55958242270116 23.954844281690345 233.33741577712837
7.396008394783339 24.058174289492975 234.18771995532586
8.152052612497021 24.137258366358278 234.83530339240522
8.955800634638802 24.234346237782283 235.63363720490105
9.762411653697328 24.319169635654063 236.3282583258681
10.572651412524543 24.40144154426796 237.00122822042388
22.21754465669591 25.34918496127019 244.69206951982648
23.062841094442092 25.399739124644512 245.0943344128153
23.909412732567713 25.448665005057226 245.48188708110206
24.807431726284943 25.506096870489202 245.93861410122915
25.606167947373823 25.541972277895955 246.21476629795183
26.465896063837675 25.598665204405282 246.66345284937023
27.317559710663822 25.642012082085998 246.99735048060654
28.221895224574034 25.69411548684115 247.4007535602521
29.02441395310319 25.725352688712633 247.62887727730484
29.943082411602408 25.787751844690174 248.11238380376793
30.800446018486753 25.827209196014582 248.40031204182844
31.712151673937427 25.87587649569605 248.75853377616428
32.572980771834985 25.91421062359559 249.0266926907183
36.97998251729102 26.127756098244767 250.43553985983354
37.91304472527292 26.177512572064465 250.7413015194653
38.79511504848032 26.21843051306664 250.96477663955696
39.64095899923916 26.263166249140163 251.21302166295624
40.59053977967068 26.317601280946555 251.51092177808536
41.489950169083016 26.3640780405083 251.7304576442789
42.45542772154593 26.423907906664912 252.02991218035143
-24.466451583240172 16.25441043475392 168.41567335427922
-24.07358664658026 16.338357037075216 169.14224629512674
-23.689759952269558 16.43470371569372 169.97035957005167
-23.30986810570887 16.539433424188484 170.86601951558345
-22.93256958475497 16.652001732973 171.82500750722528
-22.556582379693985 16.771858805388526 172.8430142696588
-22.15344725372766 16.898295211742653 173.91333099945038
-21.77665288641818 17.031348903053527 175.03843374509535
-21.37425478345988 17.174932849123632 176.25019078554305
-20.96857781067729 17.324223195093644 177.5084353825526
-20.582204583721715 17.473202658169825 178.76328313093384
-20.211761124699787 17.616180020131672 179.9663048859648
-16.746105678038802 18.94741096513931 191.14137751830364
-16.256045878747894 19.12454892263719 192.6260237821184
-15.78158724322708 19.2937205136032 194.0440816191611
-15.32446722364207 19.452402859666385 195.37366668357316
-14.803326952532839 19.628700528215994 196.85032799658333
-14.325814169407945 19.78693251052394 198.17622742015993
-13.811009554273765 19.952213408321025 199.560381271573
-13.257756648702461 20.12481375364136 201.00508375800464
-6.542994185162465 21.876169720103753 215.6368865414892
-5.90096221170434 22.010896237321358 216.75930856941284
-5.216724099023628 22.152922751552094 217.94189884301207
-4.523834763053482 22.291957824336542 219.09880631608019
-3.822568470888043 22.4279777177797 220.22981952012873
-3.148946335252344 22.550395491467444 221.24666456122728
-2.4349417371339697 22.68640151697244 222.3764252302763
-1.7105387043684865 22.813592225318683 223.43157513169118
-1.016047139351911 22.927050780186985 224.3715050444192
-0.27783086269210033 23.048150309762363 225.3743524072434
0.4651894814587542 23.1735438347384 226.41280129919943
1.9356317041501574 23.390572606058047 228.20512996071471
2.6990047353687094 23.500047846271993 229.1082224159566
3.4680825111018407 23.60661905112981 229.98643961379528
4.242611278336745 23.710319899070917 230.84009383043502
5.022006327339164 23.820008834199996 231.74381989737128
6.554886298942368 24.003028078496577 233.24523195058757
7.348676921228477 24.095843177325698 234.0060011829804
8.14674353782154 24.185979624422803 234.74399486229672
8.950177575049057 24.283319606837455 235.54250448455866
9.75649560730133 24.36840899498957 236.2376735890367
10.566448690663178 24.450945124512955 236.9112290435914
22.208004301894338 25.402136036160677 244.61199422293785
23.053128410413027 25.452922914015666 245.0151517647023
23.89953709115761 25.50208001507861 245.40360574408234
24.747173175806665 25.549691398218513 245.777830972539
25.595995645154467 25.59584629184109 246.1383109375639
26.4555586721239 25.65276645028815 246.58766027703305
27.30709953804967 25.69634203257095 246.92249227358948
28.211297048792634 25.748686304258563 247.32672586948345
29.01374199973809 25.780140799155088 247.55590658401078
29.93226337552256 25.8427843362618 248.04001629844572
30.78955184065661 25.882474644333158 248.3289107944811
31.701171234418755 25.931390919462658 248.68800636543864
32.56195326042342 25.969963530042822 248.95714754123395
36.96890965202486 26.184796639772742 250.3707334955561
37.846390228122495 26.22479827713162 250.59908365989244
38.784169261549756 26.27605318696793 250.90200112386086
39.630104247908186 26.321075199224047 251.15119348544675
40.57980798175926 26.37584549376195 251.45012522648702
41.479388743066494 26.422653864526048 251.67078636349697
42.44506158508832 26.482859382443923 251.97133338740792
-24.47348123603232 16.30047804690745 168.46361418530617
-24.079925583086162 16.384185474168554 169.18665570633564
-23.695383194518012 16.480280104452024 170.01084848299612
-23.291083706943496 16.58805958460234 170.93034572384147
-22.936779315405584 16.697070930624793 171.85706109115213
-22.560104297855897 16.816676294366477 172.8706084332738
-22.156298932490092 16.94286584878264 173.93636452965453
-21.77885763307247 17.07567605283494 175.05677489363782
-21.37581787598944 17.219015574815636 176.26360777310225
-20.96953057227301 17.368069952929726 177.5168692298179
-20.606232748702833 17.511385673314077 178.721702870165
-20.2116700777245 17.65961557498687 179.96537781625955
-16.743231369178734 18.989713057307167 191.10369491701172
-16.253003492374333 19.166784056874498 192.584134544995
-15.778426744662678 19.335915808667966 193.9983751823581
-15.321227656864426 19.494574308270607 195.32449153270798
-14.800034170201682 19.67086059874396 196.7974242564397
-14.322515279903815 19.829114886956017 198.12025021642393
-13.807731006850489 19.994428510281114 199.5012716725564
-13.254526778218754 20.1670722424373 200.94277923650117
-6.575175396635287 21.909604969911257 215.4652203252256
-5.900156417816423 22.054796641027703 216.67196342599206
-5.216225297008107 22.197038923779548 217.85345588244394
-4.523650956186421 22.3362979020611 219.00939852267754
-3.822706263039247 22.472549073621483 220.13957405567155
-3.149395414945259 22.595206101476748 221.15593171182434
-2.435719280428415 22.731433491399383 222.2847760062658
-1.71165042428382 22.85887305614884 223.3394273596055
-1.0174768316012774 22.97258523187476 224.2791842576986
-0.27959682940785735 23.093941764370257 225.28173334947172
0.46308409785385724 23.21957477914192 226.31964972770248
1.9328751971396751 23.43713147701176 228.112031649037
2.695915732212011 23.546873839232237 229.01516237046127
3.4646637983094046 23.653713410047 229.8934908001841
4.238866211332695 23.757683410554737 230.74732446873304
5.01792847104024 23.867623953176835 231.6509599247419
6.5501989122104005 24.05117937950041 233.15322320317867
7.343680536474562 24.144263119991106 233.91439898201745
8.141443592930447 24.234667204089313 234.6528469078839
8.901439143731375 24.321495434138754 235.36220617330846
9.70704098130087 24.406872682990198 236.05810837131193
10.560255466926455 24.50041353171917 236.82137091425258
22.19847249410303 25.455049966037972 244.5319872637441
23.043424141773436 25.506069733885216 244.93603346096708
23.889669740769037 25.555458271134352 245.32538493875754
24.737152403121748 25.60329989006175 245.70051582077147
25.58583141802852 25.64968410480703 246.06190901655685
26.445229327514646 25.70683173750452 246.51191829794064
27.296647344281922 25.750636405727857 246.8476815263469
28.20070683892351 25.803221932154994 247.25274277567533
29.00307795849856 25.83489422826993 247.48297759724292
29.86933270496409 25.88788448736634 247.8868462372251
30.726224166229333 25.927827911080715 248.17710758185595
31.690198962673126 25.986872215504007 248.61751379901872
32.550934041999504 26.02568398825746 248.8876351017714
36.957846690937636 26.241809002402125 250.30595217386687
37.89099359353016 26.292155820850773 250.613648699411
38.773234646476965 26.333650017229093 250.83924890269643
39.619261428840545 26.378959529061376 251.08938812606362
40.56908912620563 26.434066559411146 251.38935126670614
-24.504792663888402 16.344279766712916 168.4914326366865
-24.08625472562401 16.430031116630698 169.23097352911321
-23.700999643996965 16.525873796644937 170.0512681137081
-23.319687898012457 16.630096332086282 170.93869572168663
-22.940988189953618 16.74215764739831 171.88909243360888
-22.563628210438782 16.861511387379387 172.89820457901598
-22.159155295425975 16.98745412209815 173.9594242454595
-21.78106964165444 17.120020848062758 175.07516661859827
-21.37739069825475 17.26311589206881 176.2771002586568
-20.97049532356567 17.411934180482664 177.52540306678534
-20.606663575716713 17.55504003669423 178.72559602319373
-20.211594616137365 17.703068146002042 179.96459445891455
-16.740378379855898 19.03202669204263 191.0662935450597
-16.24998220348253 19.20902964221251 192.54253811996924
-15.775286922132752 19.37812039592998 193.95297061015762
-15.318008257707449 19.53675392336602 195.27562583261508
-14.796760874111646 19.713027543437274 196.74483739738687
-14.319235049827878 19.87130281723654 198.0645938452622
-13.77672193851525 20.045430584036886 199.5152668724175
-13.251313655868701 20.20933347631019 200.88080284844656
-6.574075865197066 21.9532850797338 215.3794189305779
-5.899353248613674 22.09868217848014 216.58491942802632
-5.215728021581469 22.241138840503627 217.76530761647714
-4.5581904163904285 22.370163015384144 218.8335066186673
-3.858061952905124 22.50658532866486 219.96235763121385
-3.149843066717719 22.639996567432224 221.06547168249924
-2.43649450166784 22.77644411169795 222.1933937718308
-1.7127589800199854 22.90413134395434 223.24753890146832
-1.018902622894491 23.018096053169042 224.18711439263015
-0.31897922665608347 23.1289902481564 225.1004872558552
0.46098403601186455 23.265579947571414 226.22673487185216
1.9301251429516018 23.483662674789738 228.01915366123094
2.692833689098295 23.59367125539106 228.92231476895128
3.4612524994203144 23.700778337747476 229.80074660804982
4.235128960412742 23.805016685462434 230.6547519837251
4.972948257182402 23.904386830534534 231.4686613427165
6.545520264853013 24.099298335363827 233.0613895688987
7.338693110028132 24.192650100504842 233.82296459815254
8.136152784192177 24.283321251436547 234.5618596228433
8.895860339006042 24.370395877733095 235.27156283791854
9.701169749919462 24.456037817347426 235.96799593354734
10.554071754329813 24.549846905334512 236.73165399881475
22.188949282698548 25.50792686164131 244.4520489825607
22.984253132199918 25.549017862717772 244.77312377019626
23.87981073632465 25.608799881280085 245.24722501499332
24.727139864828068 25.656871990887545 245.6232579201815
25.575675326605452 25.7034858228536 245.9855608920836
26.434908093650357 25.760861171891307 246.43622727312456
27.286203195991956 25.804895306880077 246.77291860251012
28.190124664913277 25.857722475848394 247.17880464547162
28.992421902247827 25.889613081048008 247.41009068489242
29.858555232479244 25.94283567786573 247.81466262029295
30.715371121264347 25.983012738418186 248.1058823136452
31.679234942580553 26.042320491380078 248.54705645239048
32.53992320425248 26.081372106965862 248.8181557493695
36.94679374606579 26.298793308177817 250.24119628424796
37.824397137601615 26.339350485452485 250.4716343028499
38.70624642082058 26.38105932474248 250.69843992300255
39.608430675328634 26.436819376543706 251.02760598819407
40.55838335592643 26.49226462359354 251.32860030967035
41.45830822228037 26.53974102871787 251.55151185862994
42.365860601905396 26.589997058157035 251.7759277780757
-24.48750280282712 16.392664759907312 168.5591610297705
-24.09257412457169 16.47589394137266 169.27519994903832
-23.706609324650014 16.571484764865158 170.09161847013826
-23.32459209492958 16.67545387549698 170.97496453225102
-22.945196183226464 16.787261849479254 171.9211011843451
-22.56715407019438 16.906364048647884 172.925802181106
-22.162016275204415 17.032059994616176 173.9825094511605
-21.783288826748564 17.164383251463775 175.09360806042062
-21.378973148435694 17.30723376426315 176.2906672220494
-20.995059768466486 17.4506727340515 177.49153930276475
-20.60710816170841 17.59871164208412 178.72960992691273
-20.211534604681567 17.74653770399701 179.96395339900926
-15.772167651141013 19.420334316329942 193.907866023299
-15.288186498133651 19.587189725016653 195.2951854678035
-14.793506954699504 19.7552014202933 196.6925655881336
-14.315973378089092 19.913496367833996 198.00925652385322
-13.801227057469898 20.078871320222724 199.38402446558098
-13.248117197590657 20.251597538598464 200.8191529117994
-6.5397275648390645 22.007199900489613 215.37876249444773
-5.932272441818016 22.132234985204818 216.41275963976315
-5.215232268792746 22.285222656913454 217.67745325839226
-4.557993927524807 22.414470292821647 218.74490637042535
-3.8581841059552873 22.55112085375201 219.872903271127
-3.1502892937352795 22.684767049621648 220.97528389215708
-2.473433445634116 22.81081726184949 222.01443247460742
-1.7505215256758728 22.93870866188873 223.06772544322067
-1.0203245196312856 23.063583406311746 224.0952950448816
-0.32071719851760094 23.174732273741146 225.00857065224153
0.4588892890921468 23.31155950235734 226.13405643062805
1.9273815357020505 23.53016635965877 227.92649579601212
2.689758600997809 23.640440253785716 228.82967945557664
3.417892591727157 23.737006791301138 229.61888723116644
4.190981471824053 23.84150901426372 230.4730392021377
5.009797406861658 23.962761254820617 231.46581151791463
6.540850359072142 24.14738509649372 232.96973107836703
7.333714646035548 24.24100426706585 233.7316980929567
8.130871117813307 24.331941912366563 234.47103309751742
8.890290833543075 24.41926241401138 235.1810740634854
9.695307925592436 24.505168559803295 235.87803123269467
10.503985349096437 24.588519463933387 236.55351285426894
22.13031162994567 25.550550301127032 244.28802511647095
22.974593573501885 25.602081288728343 244.69426237743713
23.8201921609182 25.651977287436445 245.08582697915224
24.66705041861072 25.70032271212918 245.46319008794293
25.515127516362625 25.74720721643051 245.8268318045979
26.373852544039757 25.80483376162579 246.27845746680944
27.275767159720715 25.859118841834597 246.69820386412948
28.128146400548427 25.902227209601897 247.02357773962154
28.981773903790394 25.94429746301517 247.33724621344228
29.847785886221978 25.997752820035963 247.7425191859161
30.704526250326374 26.0381640855118 248.0346947597569
31.615520489984043 26.087834584307192 248.39672351152427
32.475824100888715 26.127132263857916 248.66916450843644
36.880675351985516 26.345716836281103 250.09819701892113
37.813416565370126 26.3965863085978 250.40794662334346
38.69535160430427 26.43858539538793 250.63580941520962
39.597612121055015 26.494654880625585 250.9658474749777
40.490529673456116 26.540033774611235 251.1898620740329
41.44778943481056 26.598252678758126 251.4919094726627
42.41405675529627 26.65959607198758 251.79573643788422
-24.518836358326634 16.4365154012597 168.58694474316704
-24.098883830835657 16.52177392612118 169.31933515410768
-23.712212261138504 16.6171129824882 170.13189956423656
-23.32949249145224 16.720828771288957 171.0111869246797
-22.949403271104742 16.832383503757807 171.95308700015394
-22.570681831067247 16.951234243050084 172.95340072221313
-22.164881805805347 17.076683429869863 174.0056194608118
-21.78551510434601 17.208763226312396 175.11209837048418
-21.38056512619455 17.351369155260727 176.3043076551412
-20.996068664610153 17.49457982393123 177.500436138299
-20.607566381855335 17.642400457515162 178.73374329904482
-20.21148990966394 17.790024220053418 179.96345323580348
-15.76906880807529 19.46255761023243 193.86305955459312
-15.28499960372713 19.62937797258486 195.24669989697549
-14.790272303108065 19.797382286606904 196.64060700799743
-14.285362239957971 19.96429639315552 198.0251354117676
-13.798001470900019 20.121099177239106 199.32588340055702
-13.244937319780048 20.293864511794023 200.75782775255934
-6.538646116460858 22.050850053753265 215.29333466998833
-5.931462926997823 22.176094348811496 216.32655123986862
-5.248939700228057 22.318903513579716 217.50412102275274
-4.557797954993131 22.458760322742492 218.6565918656226
-3.85830578050927 22.595637822757283 219.78372773357918
-3.1507340991781305 22.72951770756079 220.88536775799304
-2.4741877152791 22.855786798163336 221.92380742271274
-1.751606596156039 22.983923085235816 222.97657630347953
-1.0217425282490324 23.109047452883566 224.0037258076426
-0.32245060408924436 23.220449954322465 224.91689585214706
0.4567998501954769 23.357513605244993 226.04161410017002
1.88564752696871 23.565854686830914 227.7450871868275
2.686690462788184 23.687180992996346 228.73725627130528
3.414518176254555 23.784011334600628 229.52675302929342
4.187282487428344 23.88877991326655 230.38105811961134
4.964880186556277 23.999457096279183 231.2842849542829
6.536189196925545 24.19543981304216 232.87824775885503
7.328745148490549 24.289325767657502 233.64059952466582
8.125598599840098 24.380529332604212 234.38036741893825
8.884730635383638 24.468095186757306 235.09073996172978
9.689455518600415 24.55426505176204 235.78821440540855
10.497846878976384 24.637878091227318 236.46425157154448
22.120833588694857 25.603344054305047 244.2083552829694
22.964942552996582 25.655108122923558 244.61546622604152
23.810377527005134 25.705235862628005 245.00791390989588
24.657081824635195 25.753811941522578 245.38616880534812
25.505014931325796 25.80092629911132 245.75071042749548
26.363574581808468 25.85878069279408 246.20298498948554
27.265339301920285 25.91330711688269 246.6235376716801
28.117606703555563 25.956645993323832 246.94984039188887
28.971134035873813 25.998947480233245 247.26444454797232
29.837024742395702 26.052636020646286 247.67041630216173
30.693689633079078 26.09328205967794 247.9635452900793
31.604597554676637 26.14320340465942 248.32643614318053
32.4648539798591 26.182741763087044 248.5998478941273
36.869662248762 26.402627768435593 250.0335735936888
37.74694343432456 26.443684813439084 250.26628118673565
38.68446827299489 26.4960860102409 250.5732032951904
39.58680590009761 26.552466181331067 250.90411298931335
40.479864533143804 26.598164574857627 251.12922533410799
41.43728516846979 26.65674324944485 251.43233088987563
42.40375356227599 26.71846961161891 251.73725203375366
-24.525839512114104 16.482658930630443 168.63453393725226
-24.12932943261398 16.565082218930392 169.34117075249387
-23.71780847883421 16.662758423673193 170.17211141188844
-23.358172921383293 16.76294999101476 171.019884051358
-22.953609430511502 16.87752257782988 171.98504954477883
-22.574211448182403 16.99612193612311 172.98099969334768
-22.167751822506066 17.121324392000265 174.02875359810628
-21.787748391830654 17.25316073643321 175.13063671097666
-21.38216653266139 17.395522029408657 176.3180205616773
-20.997089137506638 17.538504282424373 177.50942863927446
-20.63173772573473 17.680696304153905 178.69353866888477
-20.21146039894094 17.833527665519753 179.96309258259433
-15.792282238623805 19.496743393599687 193.75243775129755
-15.281832545259505 19.67157452225912 195.19851929232476
-14.787056811183543 19.839570198981267 196.5889598468567
-14.28213236143182 20.006493911851436 197.97019434178983
-13.767033684292755 20.17209255567441 199.34012441511751
-13.24177393928869 20.336134477552807 200.69682570474865
-6.604004999272492 22.074013447396986 215.03955165074618
-5.930656054412941 22.219939343594724 216.24064063538384
-5.248434424585343 22.36295834220641 217.41708526473857
-4.557602497644254 22.503033260564994 218.5685623877131
-3.8584269778207796 22.640136392979475 219.69483036913402
-3.151177486240919 22.774248699997212 220.79572269553483
-2.474939723593467 22.900735514761756 221.83344713094405
-1.7892824890018995 23.01846696648199 222.79801355427375
-1.0231566552221267 23.154488353806617 223.91240627166601
-0.3241794501268593 23.26614345041979 224.8254625027704
0.41666219913071134 23.392685208361637 225.8608805857939
1.9219136380787671 23.623091829241986 227.7418396127814
2.644183018865816 23.723091239261066 228.55618593126118
3.3712702303427764 23.82018433778385 229.34597390011018
4.183591262969084 23.936021102959636 230.28927324883242
4.960858398865511 24.04694639354364 231.1923817541122
6.531536780328366 24.243462634906177 232.786939634314
7.323784621235835 24.337614750047507 233.54966894820768
8.077756204945496 24.418299141250074 234.20122559063438
8.83618967856821 24.506121384382986 234.91202524349092
9.683612539052882 24.603327434521578 235.69854558513111
10.491717915019638 24.687202164854522 236.37513168752866
22.111364257358463 25.656101157430047 244.12875499468285
22.95530012219088 25.70809847543122 244.53673565471522
23.80057136985077 25.75845816505596 244.9300626331759
24.64712160450881 25.807265148097496 245.3092057033972
25.494910630110287 25.854609650558082 245.67464379287162
26.35330488726178 25.91269213235245 246.12756442875138
27.25491968895522 25.96746023880031 246.54892038406572
28.107075217602564 26.011030048230417 246.8761489967739
28.96050237119045 26.053563239301074 247.19168605216439
29.82627187716526 26.10748538703015 247.59835433577382
30.682861349167993 26.148366768826055 247.89243427326372
31.541010853070905 26.188619836464856 248.17652860190918
32.45389246280135 26.238319274945283 248.53056540241437
36.85865944445541 26.45951101569963 249.96897667290327
37.73600285244563 26.500848908912513 250.20272135863647
38.67359655308131 26.553561303769634 250.51062195889727
39.57601214693505 26.61025341976014 250.84240293386506
40.46921282939259 26.6562727909019 251.06861271412473
41.426795578389864 26.71521289888405 251.37277652952915
42.33498132966832 26.766544100529703 251.60065197120764
-24.53283030758001 16.528819580391637 168.68201236662517
-24.13564322876417 16.61100382794732 169.38522475691693
-23.723398003812417 16.70842106336372 170.2122540328519
-23.363088793896466 16.808366981931286 171.05613079938144
-22.981500071298797 16.919086132468802 171.98706183539397
-22.577742877833245 17.04102709406454 173.0085985937544
-22.17062626186805 17.16598284575841 174.05191119625914
-21.813549326595936 17.293057313832 175.1120149109272
-21.40736568516458 17.4348701138211 176.2921799108425
-21.021759896098686 17.577330247263045 177.47653627415107
-20.63224258280447 17.724427555091303 178.69807893146586
-20.23528202069706 17.87138489875172 179.91648159919518
-15.278685207436489 19.7137794213678 195.15064182235812
-14.783860371473066 19.88176521333876 196.537622305104
-14.278920750703772 20.048697232442613 197.91556806962873
-13.763839154546904 20.214322028734806 199.2823833271796
-13.23862697342419 20.37840751670557 200.63614511039435
-6.602909976799866 22.117644839297004 214.95520582300924
-5.929851816647018 22.263770118960064 216.15502696988088
-5.247930701073461 22.40699757520872 217.3303403054035
-4.557407554335842 22.547289260877445 218.48081721923145
-3.858547699153872 22.684616720919202 219.6062105270643
-3.187242797107941 22.80840569724953 220.6196426761085
-2.47568947523747 22.945663570842914 221.74335106958952
-1.7903443608753744 23.063638360786474 222.70759905394652
-1.0245669070613224 23.19990626934747 223.82133602530985
-0.3259037434322313 23.311812921938692 224.73427024872177
0.4146027583729731 23.43858857838291 225.76912230642782
1.880233978833453 23.658723648340246 227.56128354453014
2.6411501265221173 23.769774438994695 228.46438983102027
3.3679324141324773 23.867129348322965 229.25444709544158
4.179907795493052 23.9832327378076 230.19768450749467
4.956844774110052 24.094405338469457 231.10066848694817
6.485211469419046 24.280640321238884 232.60712987054046
7.318833067964682 24.385871361787906 233.45890641522925
8.072526946169297 24.46681651207106 234.1110630976295
8.830673460016827 24.554882748455185 234.82217921065686
9.677778996889858 24.65235584927321 235.6090249021133
10.485598469470812 24.73649182366303 236.28615335561017
22.101903684515285 25.70882172231233 244.0492245828973
22.945666332449196 25.761052456739645 244.45807100018044
23.790773743636944 25.81164430404583 244.85227349052244
24.637169815269225 25.86068244018729 245.23230112786052
25.484814672656693 25.90825737829481 245.59863225023153
26.3430435234063 25.96656818769597 246.05219613827938
27.193532595736936 26.011558607925583 246.3929886838451
28.045261971576977 26.055391035081925 246.72155550406097
28.89827301378419 26.098183715875237 247.03843108908387
29.81552736665876 26.16230102708646 247.5263336521762
30.672041478222045 26.20341832145976 247.82136207672715
31.530129159188647 26.243909762104956 248.1064122589554
32.3899525079338 26.283935819176488 248.38211663665606
36.84766705150096 26.516366703167105 249.90440664276363
37.72507325605562 26.557986574731295 250.13918740497164
38.662736571085226 26.611011411447027 250.44806580192807
39.565230996452335 26.66801673809566 250.78071771107082
40.45857470641245 26.71435857247465 251.00802462352834
41.41632082030929 26.7736617864674 251.31324681098144
42.32472045676998 26.825355006140505 251.5422760617426
-24.53980882311556 16.57499733585053 168.72938038834653
-24.141947424243952 16.656942551926214 169.42918763312906
-23.752971477660004 16.751181845129175 170.22768150654701
-23.36800080046479 16.8538012510269 171.09233007497375
-22.985727074723226 16.964267518782467 172.01910220955267
-22.581276077469735 17.08594968373407 173.03619693080853
-22.197102495361975 17.206456111440133 174.04047057779223
-21.79223567287687 17.342008220554572 175.16785418528013
-21.40900661043483 17.479065786766423 176.30619132743536
-21.022823537536066 17.62129737175367 177.48588056872893
-20.63276064185289 17.768175924496465 178.70273402418178
-20.235301415157355 17.91493031017886 179.91657320642312
-15.275557475751967 19.75599271663013 195.1030656668332
-14.780682877222176 19.923967384931785 196.48659259359954
-14.275727309072334 20.09090641862172 197.86125484552923
-13.760661917710694 20.25655603031318 199.2249592590449
-13.23549633994936 20.42068370926845 200.57578431951117
-12.730984550676064 20.574141237319505 201.83828311037217
-12.186405708562775 20.734849027386765 203.16025711889696
-11.631939884592638 20.893468362998718 204.4646502377951
-6.601818700896441 22.1612635643336 214.87116174382476
-5.929050206299051 22.30758682343393 216.06970938691668
-5.247428525672725 22.451021363961527 217.24388535816868
-4.557213123934577 22.59152847744319 218.393355641835
-3.8937862125972127 22.71858091585552 219.43182725313727
-3.187668100923338 22.853099459932324 220.53076262461937
-2.4764369748909134 22.990571124876354 221.6535187070795
-1.7914031919486542 23.10878812100369 222.6174402877198
-1.0259732903131238 23.24530135911976 223.73051465457652
-0.3276234908523114 23.35745852817321 224.64331873206186
0.4125485559630533 23.48446703392731 225.67759866062997
1.8775367688776343 23.705117821401885 227.46971000821623
2.6381241197016267 23.81642991106127 228.37280488508134
3.3646018948659266 23.91404582989729 229.1631234015333
4.17623208193698 24.03041497190493 230.1062918100974
4.91207621017279 24.131008136844834 230.92055886252265
6.5222581907392945 24.339413192895496 232.60484904951815
7.313890492222622 24.434095750215008 233.3683119741229
8.067306807889553 24.51530113982111 234.02106135018533
8.825166527397664 24.603610841045423 234.7324878387789
9.671954901883588 24.701350437101194 235.5196524834382
10.47948855440187 24.785747206429566 236.19731672605874
22.09245191859453 25.761505861097707 243.96976437683583
22.936041234994935 25.81397017769763 244.3794725971836
23.780984702413974 25.864794389308464 244.7745468215762
24.627226513833424 25.9140639265354 245.1554554227067
25.474727118796395 25.96186959028051 245.52267614736456
26.332790553150588 26.020408966679202 245.97688047009933
27.183156099630597 26.065630363197098 246.3185825617207
28.034773170596136 26.1096941668482 246.64806644327427
28.887683608883304 26.15271906944977 246.9658664391655
29.804791286969184 26.21708304928071 247.4543546154779
30.66123009985566 26.258436826678587 247.7503290666578
31.519256058730186 26.29916726421571 248.036332811478
32.379032011887155 26.339435510947283 248.31299860401057
36.836685182551314 26.573194956811495 249.8398638888857
37.71415476425811 26.615097941439267 250.07567971527257
38.6518884538663 26.66843646975643 250.38553521953364
39.497975372091645 26.715398451793295 250.64137370709537
40.447950308914685 26.77242207048729 250.9474614716954
41.3481367809978 26.821452552354383 251.17594155907105
42.3144759741589 26.884147142228148 251.48392554940406
-24.571208431824612 16.618956127169373 168.75719142343218
-24.1724545304578 16.700334440106836 169.45115841987976
-23.758570800086634 16.796886252108735 170.26779388625235
-23.37290894477784 16.899252771189044 171.1284817380274
-22.989953016168304 17.009466242116694 172.0511177139633
-22.608457169747567 17.126990189832455 173.0316098333413
-22.200007512783213 17.25115719072512 174.0638134390131
-21.79448950804539 17.38645812497651 175.1865316963755
-21.434277393001764 17.518475515615396 176.2809763598665
-21.023898359534936 17.66528176811349 177.495316356077
-20.633291784651508 17.811941381856773 178.70750272387025
-20.235335542675273 17.95849256841947 179.91679935060483
-15.299108855635277 19.790005814091682 194.9888267655106
-14.777524222372232 19.966176768353385 196.4358689336237
-14.272551938446545 20.133121533367436 197.8072529293545
-13.757501883826933 20.298794631616 199.1678505164584
-13.23238195708152 20.46296313445339 200.51574169008137
-12.727936394735652 20.616469485146883 201.7755846739366
-12.183456823929696 20.777250027848645 203.09495636363997
-11.629115210549212 20.93595783703131 204.39691892067037
-6.600731160297051 22.204869766817346 214.78741848605762
-5.928251215983873 22.351389604669574 215.98468703007234
-5.246927894374344 22.49502985899168 217.15771963602998
-4.5570192053163066 22.635751063205547 218.30617693634494
-3.893891690418793 22.7630272995132 219.3439868158922
-3.188092041076401 22.89777407757048 220.44215121840045
-2.5132387854470055 23.024856707761632 221.47728964400895
-1.7924589879686397 23.153916405304454 222.52753678328324
-1.0273758115591394 23.29067378208721 223.6399417431559
-0.3293386992784215 23.403080427808494 224.5526075923426
0.4104995848431403 23.530320734056243 225.58630933446906
1.8748459267162405 23.751485332732603 227.378355041781
2.59575324283689 23.852259581468733 228.19324885740704
3.36127866815844 23.960933937319805 229.07200269022616
4.172564119128941 24.07756795897669 230.01509506797768
4.908101899070691 24.17840437625078 230.82941868909248
6.475998400629562 24.376521412608064 232.42576413288003
7.266884966988039 24.471478202430834 233.18967319261012
8.01962356518316 24.552964997201197 233.8431925927849
8.819668888062479 24.652305805038093 234.6429512265229
9.666140263640203 24.750311338982527 235.4304284530429
10.473388181713704 24.834968451859137 236.10862194604636
22.0340586725986 25.803898015195784 243.8069270724834
22.87714957340854 25.856639368166388 244.21790338556846
23.77120430010236 25.91790853094021 244.69688296409686
24.617291756999073 25.967409716295705 245.07866893010907
25.464648028253237 26.01544639490948 245.4467758303507
26.27197241108143 26.06414602635968 245.82012093607483
27.17278801260757 26.119667326487658 246.244226303652
28.02429275387681 26.163962928120444 246.57462430674389
28.877102589534655 26.20722052095118 246.89334594163446
29.794063714156334 26.271831562646227 247.3824175884771
30.598196750308084 26.303460298351357 247.59966226579795
31.508391635014934 26.354392453478333 247.9662906265165
32.36812034170942 26.394903571546735 248.2439157156259
36.82571395047999 26.629995903490208 249.7753487963073
37.70324749643225 26.672183140524073 250.01219867860522
38.64105232862683 26.725836616197675 250.32303060662446
39.48723522176464 26.77309381135645 250.57980955972482
40.437339782118706 26.830463437040265 250.88692366794268
41.337703989720495 26.879837237020382 251.11652501375096
42.24585373755351 26.93208601644451 251.34772090541136
-24.578185892106408 16.66517549340471 168.80443106307393
-24.178762861078667 16.74631476837535 169.49503880436282
-23.764163446450066 16.842607801830425 170.30783658852968
-23.377813231371235 16.944721516057665 171.16458565356118
-22.994177877263752 17.054682273042797 172.0831080439457
-22.61201609489473 17.17195521662164 173.05933772511253
-22.202916699282124 17.295875666283333 174.08717710543914
-21.820375129182516 17.426430520387754 175.16849080885393
-21.435957222243832 17.562713862393448 176.29527913175565
-21.024984256323727 17.70928340402209 177.50484255328925
-20.633835894453874 17.855723897019143 178.71238382022227
-20.23538427765282 18.00207164599333 179.9171587060114
-6.599647343761695 22.248463590170683 214.70397512312437
-5.92745483833263 22.39517860945321 215.89995904299252
-5.246428803180685 22.539023209983423 217.07184235159673
-4.556825797366215 22.679957170292948 218.2192803827871
-3.893996739875228 22.807455952445984 219.25642125465666
-3.188514620719337 22.942429705518812 220.35380786839352
-2.5139657786125227 23.069725103355154 221.38820431757009
-1.793511754708002 23.199023371176864 222.43788806629004
-1.0657842447181758 23.325339534486098 223.4625159242871
-0.33104937564555803 23.44867877892327 224.46213646664611
0.40845583790179424 23.576149837258292 225.4952540113762
1.87216144604534 23.797826339267342 227.28721842658106
2.5927621331605817 23.89885873119729 228.10228729868348
3.3579627295292243 24.00779382499567 228.9810848302939
4.168903903789749 24.124691852379353 229.92409418934216
4.904135697708741 24.225770781403906 230.7384678674993
6.471404923553052 24.42441502827232 232.33534357738588
7.219969061440047 24.508829999128643 233.0116361351236
7.972030921691909 24.59059689199877 233.6659108896731
8.81418054920512 24.700967783174125 234.5535694694006
9.660335091601386 24.799238695786677 235.34135293174205
10.423574110421974 24.873408106977145 235.932600480069
22.024652271469137 25.85650048331783 243.7277374781495
22.867569483225758 25.909475412267888 244.13956472110357
23.711863366662627 25.960806924582503 244.5367823449213
24.557478058177857 26.010580548935554 244.91985573801554
25.454577460644686 26.068987901011617 245.37093164356537
26.26176306424379 26.11790567384078 245.74502644865962
27.16242840046428 26.17366960623295 246.1699202615963
28.01382079038121 26.21819742722331 246.5012294492866
28.866530027970146 26.261688178840323 246.8208699538916
29.731464356168104 26.31655542119878 247.23057057346114
30.58742725990261 26.358399973918665 247.52880947060467
31.497535971374287 26.409585441204175 247.8962860699762
32.35721758468518 26.450340113657518 248.17486833955286
36.759838722499296 26.67664334210565 249.6331385299314
37.636985545514754 26.719052262899467 249.87119299363184
38.574330504287495 26.772927739277435 250.18305675195435
39.47650800710143 26.830765663295217 250.5182713402056
40.4267432717587 26.888482825431137 250.8264116215359
41.32728640817598 26.938201606819096 251.05713423902907
42.235652143687815 26.990816397710127 251.2894808338852
-24.609629466708046 16.709193691720156 168.83230238427825
-24.185061691709585 16.7923121751683 169.53882819071262
-23.769749446235572 16.88834647255388 170.34780965208728
-23.382713665618617 16.990207460026472 171.20064169164743
-22.998401640626454 17.099915582845497 172.1150729012759
-22.61557659913093 17.21693758834301 173.0870629584554
-22.205829997034392 17.340611505442947 174.11056095242446
-21.82266359218701 17.470923036796975 175.18740365767374
-21.46129893625445 17.602185116360808 176.27067904992302
-21.04979077992744 17.74822172296643 177.47314842039546
-20.634392855982163 17.89952344019417 178.71737611564967
-20.235447495970988 18.045667515712914 179.91764996020984
-16.743989153615956 19.363363393107566 190.71541441504198
-16.252564982962806 19.5395687927081 192.15675533813385
-15.777232763659041 19.708089454523098 193.53539659417913
-15.319621261583654 19.866303493818766 194.82915811250137
-14.798292506575306 20.042238882471782 196.26729756230523
-14.266255020890165 20.217569796966824 197.7001761080963
-13.751233067730375 20.38328591447274 199.0545722747279
-13.226201618304817 20.547531995579984 200.396604387244
-12.721885730168305 20.70113215010023 201.65114228293788
-12.177601508430856 20.862053964030967 202.96531179405878
-11.594104494166888 21.030251897120174 204.33818581901275
-6.59856724007612 22.292045176934362 214.6208307290299
-5.926661065993236 22.43895398370988 215.81552456942222
-5.245931248105614 22.58300156578399 216.98625271713223
-4.591220801837943 22.713717216948954 218.04779920141752
-3.894101362169046 22.851867027650776 219.1691299158034
-3.1889358430179184 22.987066498386692 220.26573198408482
-2.514690579836659 23.11457351744155 221.2993804462016
-1.7945614979647555 23.244109175429482 222.3484936603971
-1.0671614307668382 23.370667730937324 223.37265408606456
-0.33275552693160015 23.49425373899244 224.37190498962332
0.3684898866627602 23.6112047670399 225.3170318745539
1.8694833204872625 23.844140997452254 227.19629994110903
2.5897778442831947 23.94543067855452 228.01153589635382
3.3546540744026987 24.054625646923235 228.89036968747658
4.084823058396972 24.150159555746022 229.65756952783227
4.859514504321547 24.262282711150757 230.5597664394373
6.466820153024142 24.47227755505852 232.24509790893657
7.215102055632088 24.55695176124554 232.9219120923545
7.96688748931508 24.63897660520304 233.57675081827455
8.808701517863332 24.749596918050987 234.4643426597948
9.611255628167047 24.83735798670414 235.1649415440248
10.417518710376847 24.922556755044337 235.84436054217446
22.015254787224443 25.90906691240033 243.64861892081123
22.85799820400383 25.962275577738076 244.06129316374867
23.70212766679133 26.01383972431548 244.45936825976287
24.547587614960896 26.063845135449274 244.84330888949756
25.39433873950138 26.11238303599763 245.21358936541938
26.251562264816325 26.17163041087119 245.6699855158335
27.152077328917773 26.227637311355462 246.09566478596912
27.95220678218514 26.262370430551194 246.34742680673276
28.855965996374614 26.31612215211883 246.748438831965
29.720779174172822 26.371224689703894 247.1588222335868
30.576666462753376 26.413306959958327 247.4579968569433
31.48668915115375 26.46474633933653 247.82631950663233
32.34632382813864 26.505745250628035 248.10585684279985
36.74890824770377 26.733372470457546 249.5687597546406
37.626119051891315 26.776067051712293 249.80784300529342
38.56353538074617 26.830258975913633 250.1206784722414
39.46579386406569 26.88841415360309 250.45675944907566
40.416160924090605 26.946480390162904 250.76592574169936
41.25925281696912 26.985856618580318 250.9202363473126
42.22546734582178 27.049528481758674 251.23126730870948
-24.592104590937296 16.75766547611209 168.8985814108424
-24.215630187452224 16.8357878444587 169.56092849640208
-23.79940760299851 16.931215779553657 170.3635044056988
-23.38761025372341 17.03571057824403 171.23664972733945
-23.002624289850804 17.145166143524232 172.14701199410115
-22.619138645037186 17.26193727465128 173.11478507713974
-22.232424341338007 17.38119585330214 174.09991392464974
-21.84861766264169 17.510956595355577 175.16990357047945
-21.43934324570019 17.651242485430252 176.3240820486594
-21.050918632386384 17.79226577898354 177.48301262397496
-20.634962555413843 17.94333998196033 178.72247842515335
-20.235525074976728 18.089280150688122 179.91827181392938
-6.597490838052419 22.33561466877408 214.53798437840373
-5.92586989163083 22.482715872509598 215.73138275324538
-5.279523306952931 22.61660640361477 216.81686099513226
-4.5910151932904295 22.757893423253996 217.96169118690688
-3.8942055585130895 22.896260677351517 219.08211214462114
-3.189355711151322 23.031684610042262 220.17792297354526
-2.515413193779685 23.159402105254564 221.2108174928244
-1.7956082235617814 23.28917397419483 222.25935308730564
-1.0685348220313546 23.41597378550744 223.28303885637754
-0.37188210311935077 23.52909635413806 224.19503978521547
0.36647565335805127 23.65698509523808 225.22665331483054
1.827989110471604 23.879642927574864 227.018134384454
2.5868003705505793 23.9919755782503 227.92099447115473
3.351352698109742 24.10142955669522 228.79985712451375
4.121399303004266 24.20803319005515 229.65498064006562
4.8555872932325155 24.309587607586767 230.46938600139765
6.420713670988018 24.50928839358969 232.06734991891267
7.210243948490885 24.605042007312058 232.83235558267071
7.961753108174371 24.687324273326634 233.48775108562822
8.80323180092026 24.798193352122503 234.3752708869816
9.605494895550821 24.886214330031887 235.07633697917888
10.367833595884546 24.960922696050012 235.6691995544762
22.005866267531342 25.961597415652182 243.56957172086277
22.84843578622988 26.01503997659048 243.98308903975519
23.692400732646217 26.06683695804393 244.38201785727512
24.537705851918634 26.117074398500733 244.7668221447011
25.38431216946984 26.165843811605015 245.13797561509801
26.19091100847723 26.215226940630014 245.5139020926615
27.1417348636073 26.281570551265432 246.02146022564997
27.941777808775676 26.316525099772115 246.2742363961674
28.84541056688783 26.370522550330215 246.67605293051489
29.710102689779593 26.425860809476273 247.08711688428704
30.5659144381534 26.468181367653376 247.3872247853819
31.475851257714893 26.51987526045259 247.756391300135
32.28260783652019 26.551128794225793 247.958213471413
36.73798869276909 26.790074675925503 249.50440969497544
37.61526408016482 26.83305606541209 249.7445207336564
38.55275256471392 26.88756570483965 250.05832723863318
39.39871816172973 26.93561451782006 250.31794264948076
40.34859608175439 26.99389238243102 250.6280641698025
41.24887773735272 27.044157650140107 250.8609606550089
42.21529951532934 27.108222445105216 251.17308076041098
-24.62357054558352 16.80173282719697 168.92641481952347
-24.22193322198191 16.88182685542715 169.60463422256007
-23.805003287037227 16.97699614124282 170.4034443085008
-23.392503002710967 17.081230846615092 171.27260964060153
-23.00684580949899 17.190433927794587 172.1789250368547
-22.622702196291165 17.30695424587271 173.14250363252336
-22.235367373116937 17.425974097347545 174.12347368391613
-21.850940221206965 17.555491612939022 175.1890455870254
-21.464743781445655 17.69076418029709 176.2999168303716
-21.05205718455267 17.83632698369303 177.49296325262426
-20.659370482789317 17.981823479717875 178.68443861911175
-20.2356168934701 18.132909524331033 179.9190229809306
-6.629525448871552 22.36897325780188 214.37283822804605
-5.958672253088242 22.516183905270676 215.56427664260735
-5.279016612885799 22.660558244870906 216.7320719433612
-4.590810134165207 22.802053646467925 217.87586245414093
-3.8943093301305494 22.940637053003737 218.99536728535497
-3.225279052699556 23.065748512269366 220.00507918180708
-2.516133625119715 23.204211021320372 221.12251491871044
-1.8330994245096663 23.32358460409016 222.08439281419825
-1.1068327124549637 23.450584157078936 223.10728063756255
-0.3735609846985772 23.574625330277875 224.10549774204117
0.3644665744899832 23.70274135242259 225.13650724989577
1.8253440300462933 23.925904570658556 226.92785461092743
2.5838297062269135 24.038493584550263 227.8306628409344
3.348058595889045 24.148205707499912 228.70954700117727
4.117784495726189 24.25506880961408 229.5647608837523
4.8516681379025695 24.356863182776248 230.37919430810396
6.4161700455917385 24.557086232476884 231.9776392585048
7.2053947428146365 24.653100882925923 232.742966638563
7.956627783014648 24.73564003969505 233.3989117529452
8.754989770410017 24.835963448649796 234.19912598857977
9.599743612538228 24.935037610138938 234.98788095535835
10.361822971416883 25.009999531766393 235.58141359846306
21.996486759915108 26.014092106616737 243.49059619667955
22.838882280258108 26.06776872119856 243.9049526734401
23.6826826174478 26.119798737128946 244.30473146708755
24.527832825182337 26.17026844860822 244.69039583799952
25.374294266216722 26.219269658767065 245.06241889835357
26.180753992612793 26.268871409979248 245.43908373081635
27.131401070095993 26.33546943586158 245.94730692798822
27.931357459476096 26.37064586932554 246.20109421408935
28.834863811605985 26.424889483560978 246.60371260283824
29.69943497866455 26.480463891526103 247.01545488242868
30.555171265390555 26.523023308788886 247.31649361528432
31.46502237443751 26.574972317765326 247.68650181301385
32.271755667109844 26.60645741236384 247.88936939921348
36.72708017103907 26.846750088490726 249.44008873281305
37.604420750367346 26.890019438819447 249.68122656503994
38.48618289725066 26.93451946227964 249.91879637206677
39.38804569256197 26.99319615430829 250.2565543836869
