ply
format ascii 1.0
element vertex 842
property float x
property float y
property float z
end_header
-4.904222073901086 -20.232899413117842 282.3207638955502
-4.029261657186446 -20.221057914727133 282.15773659529805
-3.105078334835064 -20.198405177095704 281.8543376470351
-2.1828756936289873 -20.176263648775937 281.55710892276016
-1.3097009918815248 -20.13955790419516 281.07230639557696
-0.44049230687437135 -20.12896644126864 280.9237828246291
1.3908292387521648 -20.08791422375878 280.3678063926382
2.254596795264174 -20.053875651582505 279.9156729409564
3.2153375697353037 -20.04832985975482 279.8288352920403
4.07479333332959 -20.01540071270476 279.390152401621
4.987377327738412 -20.019420683383366 279.4264794717399
6.7481681352395855 -19.968860208391025 278.7436098311954
7.703885898177601 -19.963437457478147 278.6562857224193
8.553714979598784 -19.93258157414447 278.24273171526187
9.516279342179455 -19.948324917715098 278.4276103314925
10.362978136567206 -19.917796425415045 278.01793480073843
11.26125059695745 -19.899829405620572 277.7691056261043
-15.005455073577256 -21.11189655658852 294.7471648373168
-14.125508654911352 -21.00343451618085 293.3336092967662
-13.277926293009054 -20.9350277373921 292.43906714752285
-12.416664316906818 -20.834415024542984 291.1277260141026
-11.60417114907142 -20.718658915990027 289.62103946543925
-10.721933961473512 -20.645255411322744 288.66186888608297
-9.92811788830026 -20.537932917685865 287.26466510499966
-9.115498287593713 -20.48366252287746 286.5538718069871
-8.295434878996714 -20.40093179856594 285.4746146823004
-7.4824286364074295 -20.32128449790095 284.43524536212846
-6.676090588267961 -20.244551717655447 283.4335332332046
-4.904342363880651 -20.16331947865036 282.3624672195815
-4.029244499674809 -20.15141552219833 282.19813484863704
-3.1507794539527167 -20.11318390184482 281.6927063545527
-2.2290967679976386 -20.091276776389343 281.3975565698046
-1.3093167689078742 -20.06984628157017 281.1081216151242
-0.39229630911220015 -20.073995266309353 281.1492047844113
1.3915070509749754 -20.018119014625817 280.40022592563105
2.3046769981415203 -19.998143018646978 280.1276953665965
3.216179923557325 -19.97851209024082 279.8591553588162
4.075699108834807 -19.94561305674274 279.4193287731913
4.988363705761507 -19.949574999105092 279.4551187885632
6.749270809788763 -19.899056637800687 278.7704360917437
7.652854224163569 -19.880833483776613 278.51819995266067
8.554932368031505 -19.86279896579932 278.2681372876091
9.464475207078682 -19.866046642108277 278.2930808602349
10.364316251127498 -19.84799328391076 278.0423920754188
11.262640253782944 -19.83004938907982 277.79301882618114
-15.009016298110595 -21.042490631217987 294.8357667041401
-14.128558442288545 -20.93392819749183 293.41581969468564
-13.280568706510046 -20.865412442494232 292.51668383135717
-12.418898875230889 -20.76474551692678 291.19992329067935
-11.566728850572686 -20.668200307046156 289.9369430421934
-10.723487117702621 -20.575536818607464 288.7245683726214
-9.929387230631242 -20.468248553579112 287.32276337763886
-9.11653582375437 -20.41394492058959 286.60902526066104
-8.296247044482795 -20.33123902974381 285.5262175982684
-7.48304116387807 -20.251627172580275 284.4835797870893
-6.676526344054018 -20.17493909050226 283.4788554038417
-4.9934316734993365 -20.061644908673262 281.988644688429
-4.0292277538569445 -20.0817105698915 282.2380196031233
-3.150636312433337 -20.043477113175207 281.73080350427944
-2.2288310735682706 -20.02153689644576 281.4342376777841
-1.3089379194708426 -20.000078026313826 281.1434659337005
-0.43952523069295274 -19.98939858393064 280.9928864437637
1.3921752860250725 -19.94827181422454 280.4322093110206
2.3054291873326385 -19.928284043587748 280.1586086426246
3.217010209824758 -19.908645200761722 279.8890607944958
4.076591758559802 -19.875777775253376 279.4481013424886
4.989335800456227 -19.87968256282416 279.4833615711627
6.750357238429313 -19.829208767684946 278.7968840020772
7.65399833693976 -19.810995355466755 278.54391922928164
8.556131613714802 -19.792974064835935 278.2931797656812
9.4126895943579 -19.783809878398074 278.1580882532453
10.365634364022723 -19.778149306034315 278.06649779871185
11.264009051993924 -19.760229318992582 277.81658637888336
-14.976523319692774 -20.9941954243618 295.1998870017767
-14.13157970314619 -20.86431592333402 293.49726038548323
-13.283185659489725 -20.79569543766899 292.5935520800671
-12.421111062672228 -20.69497931172416 291.27139727353295
-11.568582681276778 -20.598405275909112 290.003484742993
-10.725023598022386 -20.505730722441502 288.78659386577567
-9.93064242618697 -20.398481244650764 287.3802128822782
-9.117561561317915 -20.344147553218953 286.6635494242631
-8.297049715983617 -20.26147025476539 285.57721376245365
-7.4836463534886635 -20.181897381224733 284.53132922555795
-6.676956776219554 -20.10525733069437 283.52361354924676
-4.993560279944784 -19.992009236696983 282.02869281977604
-4.029211424743479 -20.011943303164664 282.2773883330698
-3.1504952908993187 -19.97371024962302 281.7684003913344
-2.2750179299428943 -19.936563941935912 281.2732145994647
-1.3556365234885166 -19.915339818121705 280.9845633503612
-0.4390519281308906 -19.91953213213428 281.026746620851
1.3928339063876634 -19.878372878700898 280.4637550344731
2.256823551195947 -19.844407216831126 280.00780252142846
3.2178283873375904 -19.838729449082315 279.918550353724
4.027159410795939 -19.79239625454238 279.3013538335178
4.939434194618256 -19.796417299526638 279.33837430677556
6.751427380583704 -19.759316858296245 278.8229527772731
7.655125198730835 -19.74111422619585 278.56926736184084
8.55731267965946 -19.723107133202497 278.3178585731708
9.413925237259019 -19.713938769513867 278.18228116071595
10.366932443252459 -19.708264756543663 278.09025157895724
11.265356963136618 -19.69036946157293 277.8398079884898
-14.98003285224269 -20.92453830073312 295.2875541096718
-14.134572167062089 -20.794597789257704 293.5779240576119
-13.285776923458927 -20.72587684435119 292.66966515119316
-12.423300690784696 -20.625116556165743 291.3421418314788
-11.570416916183653 -20.52851844729665 290.06932244306773
-10.726543278517626 -20.43583730950544 288.847940289199
-9.891141900266144 -20.34684489433106 287.67495250739586
-9.118575422683026 -20.274270633236934 286.717440049284
-8.29784283517315 -20.19162569609615 285.6275993051611
-7.484244163407596 -20.112095354302923 284.5784901526077
-6.677381856998994 -20.035506675011188 283.56780445875916
-5.876887240156417 -19.96169838901865 282.5933901653625
-4.949223967631314 -19.93824068027151 282.27615580738114
-4.0291955173077865 -19.942113970476935 282.3162385134011
-3.1503564022597703 -19.903883562147644 281.80549469946214
-2.3211585518415103 -19.8516280168358 281.11146764462285
-1.3552765715721082 -19.84549585071198 281.0187165927356
-0.4385854899472192 -19.849611005575145 281.06014328983247
1.393482874607122 -19.808422466018445 280.49486158031493
2.208251444548218 -19.760571475483754 279.85640158790073
3.1189379090990634 -19.74137767538826 279.5909176855744
4.02801545641716 -19.722502587989315 279.3291328094
4.940367039509856 -19.72646809386393 279.3656451634786
6.752481195638405 -19.689381170686957 278.848641628123
7.656234770425813 -19.67119035764956 278.594243666571
8.50587416027118 -19.640741424181368 278.18016791078173
9.415141784273095 -19.64402664241411 278.2061158654979
10.314739148758704 -19.626225965119712 277.9561669084578
11.212830199751762 -19.608541077988882 277.7076250247368
-14.983509908315606 -20.854769317304207 295.3744089601767
-14.13753556319664 -20.72477389834158 293.657803386591
-13.288342269651533 -20.655956791098383 292.7450162925532
-12.425467570960409 -20.555157404137884 291.4121508266508
-11.572231401393555 -20.45853999619376 290.1344505603409
-10.72804603523881 -20.365856772247835 288.9086025640361
-9.892368869501889 -20.276877231414666 287.73152299629373
-9.119577330255414 -20.20431437810875 286.770692886964
-8.29862634373626 -20.121705580817427 285.67737035716567
-7.484834551810593 -20.042221326541696 284.62505904425495
-6.677801558625744 -19.96568736415238 283.61142492293317
-5.8333425181331675 -19.908151266712505 282.84671863765107
-4.9493441900579915 -19.86844178523553 282.3154388637755
-4.074390269017625 -19.85655337341921 282.14930407487884
-3.196035847794059 -19.818627406316228 281.6407875137558
-2.3209191089072836 -19.781788396203797 281.146174188468
-1.4019451108993888 -19.760777088449732 280.85840254645694
-0.4381259465787907 -19.77963546253323 281.09307463555274
1.3452984070024427 -19.724291643986543 280.34071348725536
2.2089516182316604 -19.690635751253527 279.8856315167636
3.069949193514661 -19.657806982435684 279.4409891052279
3.978589386471971 -19.639152713806055 279.1812464927045
4.94128557014205 -19.656473084298003 279.392517308079
6.753518642953171 -19.619401966729935 278.873949761394
7.605139924649176 -19.58860554029553 278.4540933528441
8.454456599615675 -19.55841901190705 278.0420085560692
9.416339200335011 -19.57407376097517 278.229591869303
10.315985652531863 -19.556295707265406 277.9790797297724
11.21412473761071 -19.538636792414664 277.7300232755202
-14.98695416347456 -20.784888548435404 295.46044343212895
-14.140469620329258 -20.654844361282702 293.736891036015
-13.290881469055364 -20.585935413670732 292.81959874317795
-12.427611514455625 -20.485102016252696 291.4814181153605
-11.574025982944177 -20.38847010385 290.19886350920785
-10.729531744219594 -20.29578930893927 288.9685756096512
-9.893581472595399 -20.206826892637697 287.78742948439805
-9.120567206459137 -20.134279010336098 286.823303688914
-8.299400183377495 -20.05171014066441 285.7265230502841
-7.442728116353322 -19.989219307304833 284.8939761396712
-6.67821585333685 -19.895799642768644 283.65447173402754
-5.833603534805487 -19.83829191303889 282.8873816559322
-4.993936872715187 -19.782723333492015 282.1456487756379
-4.074381316905543 -19.78663789827748 282.1868268644222
-3.1959079777244663 -19.748719091878783 281.67660226138474
-2.3206833565144214 -19.71189181920176 281.18039031222804
-1.4016037184169232 -19.690859288801846 280.89136183299297
-0.4853606040714303 -19.69502461631435 280.9339932090288
1.2971501844472957 -19.640202538336847 280.18594928113714
2.2096409659730036 -19.620650921759136 279.9144327353613
3.070701476488117 -19.587856085706758 279.4686551417482
3.9794091140223684 -19.56920236466989 279.20803142440235
4.891362149975571 -19.573231080930736 279.2458476243644
6.7027825519087205 -19.536595483499667 278.7312950368266
7.606203957189164 -19.51863251913171 278.47817185969916
8.455560999546277 -19.488498078545362 278.06530168550705
9.417517450265523 -19.504080389475487 278.2527086683646
10.317212124706305 -19.48632580761566 278.0016401330246
11.215398401151404 -19.468693648284017 277.75207537210383
-14.990365292722892 -20.71489607672664 295.5456493886445
-14.10649415664537 -20.60535339904843 294.0866953776959
-13.293394292443573 -20.515812855110156 292.8934057342563
-12.42973233241681 -20.414950559916896 291.5499375489644
-11.57580050683206 -20.31830895783964 290.2625557013298
-10.731000281494227 -20.225635123724924 289.0278543443557
-9.89477961142764 -20.13669409564029 287.84266734862365
-9.12154497374793 -20.064164757498602 286.8752682077349
-8.300164295829799 -19.98163961206305 285.7750535179473
-7.4433007232473765 -19.91916507322021 284.9397049285304
-6.6786247133775785 -19.825843759491303 283.6969416864947
-5.833861125846892 -19.768367280361765 282.92748783466664
-4.994059311408005 -19.712835910326437 282.1835623371814
-4.119529256444124 -19.70108945325463 282.01829653979894
-3.1957821919139033 -19.678751963179767 281.7119086518127
-2.3204513136181353 -19.64193854645677 281.2141139063438
-1.4482412976119823 -19.606162583206324 280.7296397873467
-0.5325538053733816 -19.6104546496452 280.7742451104378
1.2977518127255385 -19.570173570091193 280.21531373852247
2.1610623405502847 -19.536832740574706 279.7611853369602
3.0714417709791424 -19.517857908849116 279.49590310896605
3.980215698819789 -19.49920603669278 279.23440876546204
4.892241729679405 -19.503181677587744 279.2717465250276
6.703776558373119 -19.466565982520546 278.75568135482695
7.555103934990157 -19.43608540303242 278.33701564120526
8.404135846903145 -19.4062142087896 277.92616725766635
9.365629366031799 -19.421863082636687 278.1152561533034
10.264974104120565 -19.404320590442314 277.8661356721347
11.162823511792302 -19.386899586196858 277.6185072429
-14.957715482572103 -20.665908038204005 295.9101609368721
-14.0724404176211 -20.555731643958417 294.4374153351347
-13.29588051040613 -20.44558926581818 292.9664304900845
-12.431829835906784 -20.344703209399523 291.6177029747321
-11.577554819034237 -20.248056752120885 290.3255215464311
-10.732451523115166 -20.15539442667651 289.0864336861386
-9.895963187916228 -20.066479063553917 287.8972319667452
-9.122510554616506 -19.99397185229466 286.92658219764024
-8.30091862286327 -19.911494236166128 285.8229578957732
-7.443865863575207 -19.849039264969175 284.98482975327653
-6.635753501172878 -19.772296262684698 283.95723741505674
-5.8341152757813015 -19.69837762494244 282.9670342442438
-4.994180195576966 -19.64288618806295 282.2209355534751
-4.119526846189394 -19.631089843586963 282.0544874604877
-3.241428964678181 -19.593490843659588 281.5448982857623
-2.3202229991103134 -19.571928841282183 281.2473428628822
-1.4479181235841931 -19.536172845003993 280.761402339448
-0.5321314664631834 -19.54039262810707 280.80531311351706
1.2983438272039887 -19.500094562825087 280.2442349589455
2.1617207097761426 -19.4667876309043 279.78892879573516
3.072170037165156 -19.447812716043934 279.5227317707826
3.98100910015855 -19.429163993828983 279.2603774004452
4.842322257439548 -19.419975415234706 279.1239734294086
6.653038378882303 -19.383797337378436 278.61199130253397
7.5561227280364935 -19.36606484621334 278.3601971343268
8.40519328400207 -19.336247651987215 277.9485873345913
9.366758238148062 -19.351824834896583 278.1375140778386
10.266149362891447 -19.3343072159101 277.8878566383536
11.164044184417167 -19.31691423074027 277.6397379472878
-11.579288765529869 -20.177713687094002 290.3877554531006
-10.693785181253109 -20.103593508202998 289.3909605623815
-9.897132104029675 -19.99618202504592 287.9511187180706
-9.082017455056183 -19.941368819283664 287.2124301666349
-8.217420355058824 -19.87578540011885 286.3295686027458
-7.444423495955573 -19.778842134539346 285.02934708203696
-6.636147935900689 -19.702167114044425 283.99887362630625
-5.834365969131846 -19.628323206764215 283.00601795816533
-5.0387227802838295 -19.557154235555167 282.0486593873874
-4.16462700367701 -19.54555641386904 281.8843641107527
-3.2413137497158817 -19.52344482256194 281.5789178498172
-2.3663600484327905 -19.486954718465114 281.0818968962212
-1.447600231543233 -19.46612894698137 280.79268361771796
-0.5317159593597549 -19.4702776671637 280.8359106981369
1.2501952863978756 -19.41602288261955 280.08755835205636
2.1623682315889403 -19.396694395169582 279.8162404136652
3.0231490043310774 -19.364254697007034 279.37041723273023
3.9817892773989665 -19.359076501385942 279.2859362125499
4.843163175833946 -19.34987330790255 279.1488989630036
6.653989239349167 -19.313719179561243 278.635456296144
7.557124231232619 -19.296003163208418 278.38300494045103
8.406232612946575 -19.26624107231513 277.97064253851664
9.314860312180345 -19.26964810646815 277.999110683249
10.26730459191961 -19.264255129252028 277.90922467418454
11.111454501479306 -19.23516133081549 277.5052673370189
-11.581002192322043 -20.107279969658478 290.44925182959565
-10.735301623802581 -20.014654367300352 289.20147386569244
-9.898286261801474 -19.925803214363125 288.00432298411454
-9.082957893385547 -19.870982063626307 287.26283102718827
-8.218151584167185 -19.8054158560255 286.37695927127896
-7.44497357904601 -19.708573938354075 285.0732533864845
-6.636536934862937 -19.631970285895235 284.0399220239619
-5.8784481771203225 -19.542181933755234 282.8304582319596
-5.038845341652474 -19.487118822517914 282.08465408241506
-4.164630719412706 -19.475474697897514 281.91921883079357
-3.2869180354089895 -19.43820357940589 281.4103821990095
-2.3661460628277 -19.416871069847062 281.1138822618654
-1.447287645662863 -19.396031157882156 280.82348169637925
-0.5313073132930927 -19.40011003598951 280.86603607000643
1.202084139656227 -19.331995602681985 279.9302728445446
2.1630048678918508 -19.32655330116858 279.8431188274292
3.0238438474717197 -19.294153548641813 279.39621879562037
3.8821108061644303 -19.26254261419856 278.9594464775505
4.843989765164358 -19.279727049501833 279.1734224659637
6.654923725054326 -19.24359913248674 278.6585382371039
7.5059922245275095 -19.213491019366806 278.24032531969186
8.407253797074244 -19.196194734405054 277.9923322705704
9.315940123319193 -19.19956656458294 278.02051104257714
10.215023363043992 -19.18228765403232 277.7723095428613
11.112622523320358 -19.165135313365447 277.5256784969159
-14.967682839138137 -20.45483372746377 296.1601353072277
-14.080942337090752 -20.344483594026975 294.6685909155885
-13.303177235558373 -20.23431392956801 293.18074350575927
-12.399419069396767 -20.152826003181612 292.0772327088729
-11.58269494545963 -20.036755813268933 290.5100050846511
-10.736700235223902 -19.944155455200477 289.2579245444483
-9.899425563344344 -19.855342871374418 288.056840149275
-9.08388599202406 -19.80051704605252 287.3125671286202
-8.261031528767804 -19.71777769020156 286.1931073317499
-7.445516071549312 -19.63823493730224 285.1165451423666
-6.636920470746634 -19.56170604308204 284.0803794007029
-5.8786959274958175 -19.47203713036555 282.86800129879265
-5.0389662485996976 -19.41702216683114 282.12010169510506
-4.164634629648889 -19.40533349293581 281.953541117661
-3.286813002478065 -19.36808066259851 281.4431112688303
-2.4122455233932936 -19.331921296732748 280.94697513517895
-1.4939184880385743 -19.311327871306208 280.65891819337526
-0.5785028793887529 -19.31553763213322 280.7035317421689
1.202629994059487 -19.261843817170124 279.9574500664839
2.114401412102961 -19.24274767435266 279.6874027809592
2.9748347703406646 -19.21063230933485 279.2427366164226
3.8828456519892423 -19.19243944797865 278.9838319125401
4.794051038209164 -19.196551868799904 279.02397921252197
6.707588260370839 -19.18602490977152 278.8493957354348
7.506948809901572 -19.14338409405995 278.2622363162107
8.408256799696314 -19.126108903508985 278.01365592819656
9.264033208952299 -19.11743240305761 277.8811620570176
10.216127740706451 -19.112194320999585 277.79283961249644
11.060018918202392 -19.083425498271314 277.3903109541674
-14.970936357207481 -20.38425214590426 296.24172891380675
-14.120613196341642 -20.253436796235246 294.46892394521575
-13.267830940634418 -20.183616798393277 293.5190158018191
-12.401427135322251 -20.082161358961457 292.1424449589615
-11.584366871059208 -19.966141437990157 290.5700096282894
-10.697987301619307 -19.891986963151673 289.56167419522234
-9.859745196405674 -19.802754522056848 288.35043089350756
-9.084801674031873 -19.72997401987103 287.3616342170304
-8.26174466770312 -19.647297192759005 286.23884027916483
-7.446050932219992 -19.56782539676726 285.1592188300358
-6.6372985162689595 -19.49137465458257 284.1202425538126
-5.878940091115307 -19.401828639311884 282.90497425233633
-5.03908549562101 -19.34686454104786 282.1549995737295
-4.209691549499584 -19.319797384912803 281.7810198621233
-3.2867099377728874 -19.297900748478842 281.47532293914213
-2.4120455002255334 -19.261765668350098 280.97771384493683
-1.493623691756511 -19.241161569786808 280.6885114300841
-0.5781157221378925 -19.24530387006269 280.73248431888436
1.2031662791672726 -19.191643454300213 279.9841801007181
2.1150074064536715 -19.172549520119894 279.7132188935184
2.9754964866495817 -19.140476954392255 279.2675104161872
3.9337769595298635 -19.135409633093154 279.1838629432312
4.7948392735240635 -19.126355299199805 279.0475281285209
6.553417977719924 -19.078178645024636 278.3675341108147
7.455813588110558 -19.060914711502516 278.1185622714318
8.35673944251031 -19.043854790765835 277.87203085082353
9.265064276401846 -19.04730914654043 277.9017061540051
10.163835314111997 -19.030270637103996 277.6550058274875
11.061134628789677 -19.01336036341569 277.4099043941245
-14.12334457553478 -20.182737481964605 294.5428643136986
-13.23240355938062 -20.132785867139564 293.8580914825518
-12.403411015637934 -20.011401374864526 292.2068707040748
-11.546676814267057 -19.914299101845554 290.88428577954153
-10.699352497106114 -19.82127963398878 289.6171327048566
-9.860855363934743 -19.732093928852034 288.40198159691727
-9.085704862565299 -19.659353243718424 287.4100280432024
-8.262447811737411 -19.576742804957497 286.28392636542134
-7.446578119870714 -19.49734558665523 285.20127093497956
-6.637671044181804 -19.420976393532445 284.1595082856665
-5.879180652156357 -19.331556735599474 282.9413741970956
-5.039203077199506 -19.276646221218446 282.1893450712086
-4.209701087521035 -19.249576920525055 281.8139980991111
-3.2866088525244783 -19.22766411393361 281.5070149471527
-2.4118491187345423 -19.191555417929663 281.0079497808685
-1.540221173039807 -19.156487911214498 280.52254764597956
-0.5777354200105695 -19.175018467995812 280.76096042307967
1.1550571049406055 -19.10764061927261 279.82499180358343
2.066420143437844 -19.088781234527772 279.5562943865487
2.976146169143711 -19.070276278855438 279.29186065761803
3.9344946134070335 -19.065180588686292 279.20759774418167
4.795613154734963 -19.056115548128524 279.07067286749395
6.554283437245726 -19.00800809683962 278.3891579993984
7.456725558608904 -18.990764160987798 278.1395772605377
8.357695865479497 -18.973726942223998 277.8924812900718
9.319064550825692 -18.98908967159772 278.0825485122339
10.164889168208948 -18.9601376183311 277.6746994873275
11.062229559152533 -18.94325861635749 277.42915151261764
-14.12604450810403 -20.111933221889867 294.6159522355274
-13.272518371477982 -20.04199381470634 293.65734073666334
-12.405370521492262 -19.94054626686783 292.270503754417
-11.548310615852886 -19.84346776993627 290.9432603753473
-10.700699731377162 -19.750486802886716 289.6718597042691
-9.861950460441681 -19.661352200040927 288.4528297620811
-9.08659548088817 -19.588654981594264 287.4577443632304
-8.263140903365144 -19.506114796910985 286.32836173238906
-7.4470975933787456 -19.426795781422094 285.2426979483485
-6.638038027276236 -19.350511537249375 284.1981734042195
-5.791649841687246 -19.292980607001848 283.4079168402856
-5.039318987807368 -19.206367486910104 282.22313554552653
-4.2547079483465815 -19.164062860171946 281.63988980976916
-3.3321852777099825 -19.142410288478334 281.33540315945135
-2.411656396590652 -19.121290824735357 281.03768087203775
-1.5399438165775896 -19.086255035366065 280.5509335697601
-0.5773620014515074 -19.10468170419822 280.7889582779817
1.1555659918413372 -19.037382315233277 279.85062424270444
2.0669958002142543 -19.018527811828836 279.58104724452085
2.976783779280458 -19.000030555527278 279.3157861154931
3.884971115231479 -18.98186518710515 279.05451586877626
4.796372641442882 -18.98583288662228 279.0934124144257
6.555132559660574 -18.937797030945926 278.4103973173008
7.457620243786219 -18.920574107093675 278.1602166892267
8.358634095940385 -18.90356053940333 277.9125646285639
9.214131866479375 -18.895056137570872 277.781106001276
10.165923029377902 -18.889967481160806 277.6940395501757
11.009581708066932 -18.861592832973432 277.2924229733808
-14.128712720876976 -20.041024197882056 294.6881802757635
-13.274819990265929 -19.971031899807507 293.7252592635641
-12.368697880034285 -19.88892442469907 292.5967176334649
-11.549923204261578 -19.772546519149106 291.0014677773587
-10.70202888129296 -19.679608722324236 289.72585010444976
-9.863030388738744 -19.59052959808482 288.50297076875336
-9.087473452383234 -19.517879502895518 287.50477893915195
-8.263823885177624 -19.435413443706476 286.3721425281028
-7.447609311692421 -19.356176260100174 285.283496367488
-6.638399438387073 -19.2799803672566 284.2362347234928
-5.791875701646335 -19.222503819266553 283.44376507888666
-4.99498242978822 -19.15151622709814 282.46719410622825
-4.254722692510583 -19.09376521658762 281.671520039085
-3.3320938500717117 -19.072100364684523 281.36579458968964
-2.4114673513875817 -19.050972170819843 281.0669050516196
-1.5396717020997965 -19.015970081160027 280.5788290253222
-0.6245575934858942 -19.020115941485546 280.6237002294322
1.1560652995621907 -18.96707645089719 279.8758060899789
2.067560574875043 -18.948228260755617 279.60536211796375
2.9774092786328046 -18.929740058814478 279.3392855653859
3.8354799013215852 -18.898598443732006 278.90089944897505
4.797117693346812 -18.915507587010236 279.11574575396196
6.555965305780803 -18.86754571676627 278.43125126140825
7.458497605601763 -18.850344818189807 278.18047985187565
8.359554097464313 -18.833355849788077 277.9322802547317
9.215095423115581 -18.824855191772997 277.80043432866574
10.166936865160725 -18.819760492608044 277.7130255723664
11.010624707492543 -18.791454166765753 277.31085420471675
-11.551514426211725 -19.701535595933265 291.05890238067235
-10.663186548715808 -19.626941217049684 290.0293476836973
-9.86409505178663 -19.519626391287055 288.5524000029145
-9.046821574924332 -19.4644562671284 287.7894824619038
-8.264496699871739 -19.364639025433156 286.41526490734117
-7.448113233837553 -19.28548730632351 285.3236626964643
-6.638755250397359 -19.209383169305458 284.2736890640603
-5.792098082577359 -19.151963922116636 283.4790288640302
-4.995090693782335 -19.081077846817085 282.5001485657688
-4.254737472389622 -19.023409978776797 281.70260813234637
-3.332004345760469 -19.001734805032314 281.3956608510386
-2.4112820006404885 -18.980599741039747 281.09562025724694
-1.5862467696262854 -18.931316145024592 280.4107498163426
-0.6717092576407581 -18.93559732505121 280.4577896486765
1.1565549937155206 -18.896723305559348 279.900535872417
2.0681144307290458 -18.87788285897266 279.6292376621645
2.978022628895547 -18.859405064741207 279.36235778392694
3.8361397956945127 -18.82831445958922 278.92304733971775
4.747113928504989 -18.832358553138725 278.9634979600647
6.556781636494444 -18.797254424713916 278.45171902730834
7.459357606063655 -18.7800765634886 278.200366040952
8.307975595232552 -18.75114374161732 277.78868502506583
9.216039860022661 -18.754616961863423 277.8194013157756
10.167930643055923 -18.749516920125696 277.7316571064937
11.011646938496234 -18.72127981317016 277.32893878370606
-11.592408707596624 -19.611724449932247 290.85860621911996
-10.744713973739694 -19.519372779763142 289.5813373379899
-9.86514435270874 -19.448642853829742 288.60111285745563
-9.089191149084057 -19.376098000547675 287.5967859403219
-8.18075743475929 -19.32773843563213 286.9237331168393
-7.448609318923895 -19.21472920835266 285.3631934465951
-6.639105436242866 -19.138720233397116 284.3105332535338
-5.792316969471377 -19.08136120630369 283.51370529621687
-5.039656638395881 -18.99517164593076 282.32115049404814
-4.254752290523175 -18.952997436301807 281.73315166847334
-3.377543084861136 -18.91649333432841 281.2217519879999
-2.4573823240032815 -18.89561856902836 280.92426327398766
-1.5391432904015216 -18.8752450738324 280.63314097920085
-0.6238597891848405 -18.87926673379901 280.67685403694736
1.157035040041902 -18.8263231605076 279.92481211954964
2.0686573312153063 -18.807491885952025 279.6526725343315
2.9786237918915273 -18.789025850961718 279.3850015490633
3.8367864380930277 -18.757987699449526 278.9447793236183
4.747820975405432 -18.76198676368684 278.9848533536064
6.5575815127694534 -18.726923426206636 278.4717998095211
7.408139116004861 -18.697645713542087 278.05414414963815
8.30884938102072 -18.68089997563656 277.8075276685601
9.216965142494912 -18.684341716089364 277.8380064268409
10.115537472796136 -18.667637128077757 277.5914672164105
11.012648371611181 -18.651070039142823 277.3466763476909
-11.593952443000484 -19.540573759496183 290.9140012799261
-10.74598545839228 -19.448279857141067 289.6326436967876
-9.906976500434252 -19.359858914262507 288.40483468904284
-9.090030721752678 -19.305092542974077 287.6417499250375
-8.265811599272618 -19.22287213921541 286.49951907268235
-7.44909752615153 -19.143902259098326 285.40208513697655
-6.639449968916575 -19.06799185380349 284.3467641270475
-5.792532347343211 -19.01069596651218 283.54779148309865
-5.039765809675957 -18.924654120365215 282.3526945713833
-4.254767149419006 -18.882527882048706 281.7631482326437
1.157505404415103 -18.755876299035126 279.94863336370884
2.069189239908651 -18.737055622985544 279.6756653938617
2.979212729577793 -18.71860269677321 279.40721564031884
3.837419789824589 -18.687618440239756 278.9660942994674
4.748513566262474 -18.691573321537874 279.00580042630384
6.506738795695604 -18.644270564538424 278.3228931297332
7.40895487635074 -18.627337496733148 278.07313340927925
8.309704928626164 -18.610618866638465 277.82600156404294
9.217871235838805 -18.614029723301282 277.85624912343604
10.116481161414463 -18.59735741899366 277.6092634863366
11.013628977309242 -18.580825111972764 277.36406653006674
-14.992712236486678 -19.887066921071238 296.7878000585704
-14.10223763777566 -19.776515514136427 295.24758278061154
-13.246003818226484 -19.705896988532533 294.2613337807974
-12.414795832552823 -19.584851944179544 292.5765621340182
-11.595474277442962 -19.46933458009408 290.968608604374
-10.747238290252488 -19.377103138411773 289.6831949508015
-9.86719648156936 -19.306435913272978 288.6963710379277
-9.090857342542074 -19.234011001038606 287.6860152858456
-8.266453569979506 -19.15188025670859 286.5406432072502
-7.449577814817345 -19.07300675614437 285.44033429501184
-6.639788821473204 -18.997198329087468 284.38237852774375
-5.792744201234229 -18.93996850137719 283.58128453992316
-5.039873282233912 -18.85407763154782 282.3836705059583
-4.25478205155345 -18.8120016122421 281.7925954166782
1.1579660528470703 -18.68538300645228 279.97199814030637
2.0205427891714 -18.65330044439425 279.5150304785364
2.930092564051306 -18.635084501725572 279.24893794077593
3.8380398123313517 -18.617206960365667 278.9869911672632
4.749191661573553 -18.62111850389825 279.02633816886
6.507496505282175 -18.57389859831442 278.342051201664
7.357735698100005 -18.544956306552795 277.9259315643841
8.258095119710598 -18.528455793321857 277.6809511518808
9.165833200436039 -18.531984991226373 277.7130549230301
10.117404795412973 -18.52704205884262 277.6267046756882
10.960876977757474 -18.499209186452116 277.2250526274933
-14.995676457108775 -19.815597609695498 296.86212751949193
-14.10475385426956 -19.70504837179497 295.3159894595226
-13.248169610759438 -19.634399107884693 294.32554399270464
-12.416605133259724 -19.513431043033115 292.6353092069669
-11.596974058383811 -19.398007186517464 291.02242264238043
-10.668256229402141 -19.34208627980654 290.23660154595973
-9.90899465312416 -19.217573243811625 288.49781582265956
-9.091670935600964 -19.162853671604946 287.72957782397003
-8.267085145585716 -19.080816480059823 286.58109362342645
-7.450050144321412 -19.002043001769696 285.4779374569375
-6.640121967033613 -18.926339962121993 284.417373307254
-5.792952516215135 -18.86917911350179 283.614181589982
-5.039979050507245 -18.783442480519245 282.4140756948365
-4.254796999371696 -18.741418926459154 281.8214908194239
-2.4568773625137554 -18.68414306459852 281.00508149400633
-1.5852578700726723 -18.649616097620026 280.51450549443535
-0.6703965749433365 -18.653658044727948 280.5593624745737
0.14884780702627504 -18.60665896428229 279.89490587833495
1.1097909496301561 -18.601380228171966 279.80831544563944
2.021044763749955 -18.58281368346837 279.536952613535
2.930648799153134 -18.564613267309433 279.27011495102755
3.838646467196706 -18.54675353972345 279.007468828458
4.699149047763727 -18.53800998233404 278.8718664983381
6.508237743881937 -18.50348789313844 278.36082074659515
7.358507527529831 -18.47460974874874 277.9440247541661
8.258904793247208 -18.458137878151508 277.69855274036803
9.166691310568721 -18.46163711640671 277.73044282018924
10.064973317864123 -18.445213669547577 277.4851332979308
10.961806116481409 -18.42893084891222 277.2416287282833
-14.998603037379294 -19.744018163124952 296.93550947259365
-14.070363024098775 -19.65361141683241 295.6644375983284
-13.250305958285589 -19.56280194474379 294.38887968990946
-12.41838874187488 -19.441916738386894 292.69322036435136
-11.598451633552035 -19.32659186061222 291.07543785259094
-10.749687506495826 -19.234499458555053 289.78201204188423
-9.869186004109268 -19.163911088781845 288.78870861768337
-9.092471425265531 -19.09162085711913 287.7724333503692
-8.225535796902628 -19.026477900056364 286.85512495551296
-7.45051447417341 -18.931011302969477 285.51489116835063
-6.597068338962431 -18.871405873300258 284.67467394367816
-5.793157277388725 -18.79832810947325 283.6464797650542
-5.040083108932766 -18.712748971954067 282.44390754303004
-4.254811995288096 -18.670780127642978 281.84983204713717
1.110224655575095 -18.530834613311047 279.83057211780846
1.9724173635222018 -18.499104855414377 279.3751219837834
2.931192794143231 -18.494099112120956 279.29085964950065
3.7890790657520568 -18.46351733945612 278.8503970379757
4.649138331231918 -18.454953662280978 278.7168859300922
6.508962473164723 -18.433038724134192 278.3792009611742
7.359262007359837 -18.404225866127685 277.9617391137696
8.259696221073774 -18.387783567505522 277.7157845473182
9.167530228649065 -18.391253436212594 277.747467473533
10.065847228992983 -18.374864391528277 277.50174061152967
10.962714440094231 -18.358618284349863 277.2578570762395
-15.001491648969068 -19.672328797790794 297.00793764158357
-14.07282312411388 -19.58189828530022 295.73161132880546
-13.252412632020796 -19.49110575843715 294.4513340321278
-12.381581722954667 -19.389367392249152 293.01726397212525
-11.560604503470017 -19.2736016114621 291.3869681266308
-10.670679113105708 -19.199153781156838 290.3356357948674
-9.829295126752847 -19.110118080072 289.08009520487747
-9.093258736070968 -19.020312865636946 287.81457768637074
-8.226145674058172 -18.95522977546621 286.8945732732583
-7.450970763999016 -18.859911971475274 285.55119198473494
-6.597387522650257 -18.800377276831885 284.7087317394769
-5.793358469892678 -18.727415799878834 283.678176205851
-5.040185451948068 -18.641997414174693 282.47316346391034
-4.254827041686456 -18.600085522115318 281.87761671386465
1.1106486418726307 -18.460243622157755 279.8523690450189
1.9728897208042993 -18.428569423920734 279.39597273000857
2.8820678259482677 -18.410625177576794 279.1308242373052
3.7896507339374903 -18.393019843515802 278.86986934415035
4.649755863719459 -18.384453814868937 278.7358752343109
6.5096706549201535 -18.36255136748823 278.3971910421129
7.359999100639805 -18.333804932350663 277.979073936381
8.260469367639786 -18.317393133166718 277.73264595488877
9.16834992038066 -18.3208342216037 277.7641283392563
10.0667010898477 -18.304480396900857 277.51799224173305
10.909921993173981 -18.277056986624377 277.1175052382107
-15.004341963730324 -19.600529739887385 297.07940375339246
-14.075249462295199 -19.51008119224367 295.7978614915394
-13.254489403484332 -19.41931081674433 294.5129001869232
-12.383319803359003 -19.317626816898336 293.07399057507536
-11.5620418859092 -19.201970466896753 291.4388367525018
-10.671862140406155 -19.12756230935928 290.38398703023023
-9.830251796215636 -19.038617114506444 289.1248192017155
-9.05251682577607 -18.96607438713804 288.0970621838445
-8.226745071053122 -18.88391036675007 286.9333347992617
-7.45141897354631 -18.788745323774464 285.58683647198535
-6.597701006304099 -18.729284485745712 284.7421589632179
-5.793556078902258 -18.65644249932047 283.7092680624579
-5.04028607399293 -18.571188119164333 282.50184087961253
-4.254842140920294 -18.529335419588485 281.9048424418224
1.062479941911712 -18.376281767825073 279.68679633025414
1.9733511030553466 -18.357990492897752 279.4163769242372
2.882579454366004 -18.340065473219436 279.15053009712506
3.7902090194604976 -18.322481419038283 278.8889201437872
4.650358944285129 -18.31391403001407 278.75445309093993
6.458754346761739 -18.27994808739273 278.24567386666195
7.360718770527313 -18.263347222004093 277.996028514825
8.208802483906961 -18.235284911053338 277.5856476652439
9.169150351526028 -18.250379744208207 277.78042487195864
10.01423281685758 -18.222707492149453 277.37504845548324
10.910779232506968 -18.206713199190904 277.1329212545949
-14.971267692783133 -19.549227175197405 297.44091725053374
-14.07764176633737 -19.438160396639137 295.8631805982535
-13.256536044533489 -19.34741739595636 294.5735713307573
-12.38503170533519 -19.245793259017248 293.12986079341164
-11.563456683850745 -19.13025187361569 291.48988800167143
-10.673026063370799 -19.055887767888063 290.4315542850917
-9.790263950198169 -18.984571957564548 289.41634951768816
-9.053278048588654 -18.894574936373292 288.1381504740764
-8.22733393204629 -18.812519995036396 286.97140574375425
-7.451859062692162 -18.717511681128613 285.62182120693404
-6.598008763702493 -18.658127820555578 284.774952489611
-5.793750089633126 -18.585408526428928 283.7397524947775
-5.040384969510778 -18.500321402579328 282.5299372214408
-4.209814400855188 -18.473360658258184 282.1406795578969
-3.468144692258014 -18.393299115408272 281.0014004453289
-2.502511151237918 -18.387196961206335 280.9046713796378
-1.6311789265348808 -18.353138360452427 280.4132758515515
-0.7641124637103931 -18.343396496430785 280.26507870055417
1.0143523057156476 -18.2923734222706 279.52063712814964
1.9738014755008064 -18.287368353887256 279.4363332572866
2.8334709742328816 -18.25664252315222 278.9893481923948
3.7907538848708957 -18.25190235153102 278.9075483518944
4.650947534821092 -18.24333459087302 278.7726185072693
6.45942074138434 -18.209423511411185 278.26273971127705
7.309421122867128 -18.181020780421758 277.8463032999422
8.209530131921225 -18.164860622680166 277.60163706483934
9.117021830032366 -18.168392805453138 277.6348373774143
9.961787282987164 -18.140987274629747 277.2316909969181
10.857977806908078 -18.125206919381693 276.9917033027546
-14.974054140189049 -19.47717074508262 297.5110637045035
-14.079999764281526 -19.36613616667295 295.92756116894503
-13.258552327398426 -19.275425780933958 294.63334065004847
-12.3867172426392 -19.173867017784293 293.1848684779289
-11.525490351074131 -19.07686809472066 291.801299296893
-10.754356740490298 -18.94829951702198 289.9703644063737
-9.832117179994633 -18.895379693906158 289.2120119612733
-9.054025950698499 -18.8230009253799 288.1785132991161
-8.227912201378256 -18.74105898669607 287.00878232888397
-7.452290991448562 -18.646211369591054 285.65614277787273
-6.554852077272697 -18.60275382594099 285.0316280365127
-5.749918818920765 -18.529780626927362 283.98872896564416
-5.040482132950108 -18.42939758376076 282.55744993027145
-4.20982553870765 -18.402458690964306 282.1670352484493
-3.4680867564915365 -18.322570929576113 281.02572015696325
-2.5485647693438414 -18.302247468433325 280.72741081473316
0.966266070745544 -18.20851928933674 279.3538942768406
1.9251574019702322 -18.20370204266483 279.2720607918762
2.833950551986402 -18.18603906788038 279.00801495601115
3.691091924049393 -18.1561628110922 278.5708768608062
4.6515215973867114 -18.17271578199392 278.7903704926245
6.408508519108215 -18.126875224137315 278.11022181192897
7.310097254229529 -18.11052841796275 277.86236103200423
8.157862149734623 -18.08280828558198 277.45370189519315
9.117774699741117 -18.097906041705485 277.6502795696127
10.015821785919728 -18.08184232039406 277.40553045350725
10.85878430328051 -18.05483343462327 277.0063087379724
-14.976801375362667 -19.405004843603326 297.5802210199167
-14.119142589403628 -19.274070902452692 295.7071315305006
-13.260538024717063 -19.203336265163706 294.6922013422317
-12.38837622942941 -19.10184840032636 293.2390074915963
-11.526864328164194 -19.004933475947674 291.85116240626104
-10.675296114300167 -18.912290752037805 290.52431676405
-9.833025704928883 -18.82364388973589 289.2544716361079
-9.054760457813892 -18.751352684949676 288.2181465067023
-8.270653141557865 -18.65294151358216 286.80943582107574
-7.452714719969069 -18.574844720023556 285.68979778507764
-6.555146098871936 -18.531427738133136 285.0634510828754
-5.79412725733952 -18.443159858391844 283.798887777884
-4.951524017109293 -18.388514020702146 283.01240062846085
-4.209836827757792 -18.331501932633035 282.1928235028929
-3.468030570043873 -18.251790828872718 281.04949674349217
-2.5945660979921383 -18.21735114115658 280.54945969365633
0.9666305069472189 -18.137871331871587 279.373284976108
1.9255785358361597 -18.13303459414132 279.29094208881133
2.7848594113273397 -18.102669403382766 278.84569168990396
3.691594553490019 -18.085582433566163 278.5883384572132
4.601452776128898 -18.089710438635564 278.6326149091096
6.357625912979435 -18.044381819048038 277.9572390026193
7.310755953632849 -18.04000024651782 277.87803726552875
8.158544619064335 -18.012351738303675 277.468820443531
9.065642619168433 -18.015975841583668 277.50377892763265
9.963318229627816 -18.000128963543954 277.261223373859
10.859570040832828 -17.98442730769414 277.0205660263528
-14.979509070931412 -19.33272973564574 297.64838090470306
-14.121420080883786 -19.201881358141357 295.7690360718627
-13.262492909570256 -19.131149150813453 294.7501466168269
-12.390008480295132 -19.029737721764754 293.29227171051446
-11.528215346282678 -18.93291195403297 291.9001895212132
-10.676402002129443 -18.840368932574474 290.5695019770761
-9.833917992802467 -18.751830467233614 289.2961674715868
-9.055481495896831 -18.679630551628755 288.2570459580936
-8.229036743381608 -18.597926391948825 287.08143737269296
-7.4531302085550655 -18.503412068112038 285.72278284132983
-6.555434405118386 -18.46003847751136 285.09462949570803
-5.79431038497276 -18.37194582076703 283.8275330015134
-4.951610994215534 -18.317391943602686 283.0392718190732
-4.2098482706096085 -18.260490707032858 282.21804196813287
-3.467976141781782 -18.18095913209782 281.07272807735427
-2.5944424192453153 -18.146574012922503 280.57154296892026
0.9669853553216025 -18.067180034696506 279.3922121414226
1.8769558158300148 -18.049421533049756 279.1254860439725
2.785307257339075 -18.03202400125625 278.86331918393324
3.6920838517028285 -18.014962600926147 278.6053762298777
4.601989846262575 -18.019053188796715 278.64938524722834
6.358226144112919 -17.973823863685304 277.9728507919509
7.259434365679151 -17.957733104408074 277.7268325825818
8.159208833673436 -17.94186070288238 277.48356717249493
9.066348254414175 -17.94545836656073 277.5183681245711
9.910838193231035 -17.918469789746045 277.11650774152844
10.860334990604613 -17.913988808177027 277.03447478272705
-14.982176899950074 -19.260345696294458 297.71553507635406
-14.086865208017995 -19.14944569200617 296.1149970136268
-13.264416755517043 -19.058864748785737 294.8071696965078
-12.391613810285225 -18.957535305259444 293.3446550248739
-11.529543255823379 -18.86080386084178 291.94837512681136
-10.71760649220906 -18.750562545768602 290.35839266627306
-9.834793949692333 -18.67993976737767 289.3370949586093
-9.056188991174476 -18.60783486773886 288.29520752870485
-8.2295829057207 -18.52625548466899 287.11670834044463
-7.410736340958544 -18.448001030834632 285.9858674290344
-6.555716970508007 -18.38858638261367 285.1251601803928
-5.794489855648133 -18.300672425873074 283.85555954741415
-4.951696404988929 -18.246213234242013 283.0655487620818
-4.209859869836561 -18.18942534138645 282.2426883011302
-3.467923480508951 -18.110076161191838 281.0954120402205
-2.59432225983854 -18.07574762803904 280.59309828790566
0.9673305847886171 -17.99644569980908 279.4106743757696
1.8773480374756393 -17.97871062727272 279.14329190580014
2.736234307576419 -17.948709921143188 278.6998597898144
3.6925597826251666 -17.94430360390155 278.62198911634414
4.5519322863258145 -17.936104738975157 278.4905652775493
6.358809906390818 -17.90322982903784 277.98807036155745
7.260049872876257 -17.887172600998625 277.74161239641404
8.15985475917017 -17.8713354550442 277.49794146803737
9.014213461707671 -17.863586835283837 277.37095973907657
9.911544992728519 -17.847995335593115 277.13026656101715
10.861079123675406 -17.84351820611879 277.0480346200193
-14.98480453595275 -19.187853010907798 297.78167526325575
-14.089083270385377 -19.07701059295635 296.1755488468319
-13.266309336630101 -18.98648337877015 294.8632638181796
-12.393192034936883 -18.885241482052166 293.3961513399176
-11.530847907625594 -18.788609535666964 291.99571372353563
-10.718669653026662 -18.67852109933739 290.40154081320844
-9.835653482008611 -18.607972137409377 289.3772496032669
-9.056882870150478 -18.535965981397673 288.3326271087424
-8.230118255751247 -18.45451529905143 287.15126996813075
-7.411134174253537 -18.37639376586969 286.01782394877375
-6.5559937696385875 -18.31707179646063 285.15504005511696
-5.794665654823983 -18.229340012667638 283.8829646311487
-4.95178024463217 -18.174978227584095 283.0912289149962
-4.2098716279817365 -18.118306166378403 282.2667601692719
-3.376704594583892 -18.06772989133277 281.52896432559265
-2.5942056346071176 -18.004872307075527 280.6141237158933
0.9676661644493308 -17.925668631278356 279.4286702878647
1.8777292774632948 -17.907958348511638 279.1606456149309
2.7366507437954297 -17.878024381935088 278.7164479282459
3.642991705588466 -17.861228823620003 278.4604489999524
4.552432680782582 -17.865410784675877 278.5063543166791
6.359377163536386 -17.832599997569865 278.00289692683793
7.260647942127952 -17.816577261747124 277.7560094822439
8.108133381223201 -17.789349025061554 277.3480793024964
9.01487219106296 -17.79304022264126 277.3846973081343
9.912231825653057 -17.777488434419393 277.143668809715
10.861802411174068 -17.77301577204221 277.0612451494386
-14.987391653004936 -19.115251975191 297.84679320602896
-14.091265673534824 -19.004473540904815 296.23512490934365
-13.268170427531242 -18.914005369293786 294.91842223405615
-12.356160486258547 -18.831614788749864 293.7182161338596
-11.53212915299731 -18.71632932526317 292.0421998281492
-10.639419696518377 -18.641860922773013 290.95700261523024
-9.795578935347658 -18.553203222570296 289.6665741728402
-9.057563059616392 -18.464024246538106 288.36930060383963
-8.188398956438002 -18.399145278390854 287.42291752685566
-7.411523737609686 -18.304721232343717 286.0490986862896
-6.556264777214082 -18.24549506656646 285.1842660513499
-5.7066989651860975 -18.188475259785065 284.3511272335835
-4.9518625083562595 -18.103687262355397 283.1163097469151
-4.209883547558116 -18.047133516162525 282.2902552507431
-3.4222687361712647 -17.982398327956133 281.344920575721
-2.5940925582877714 -17.933948373500904 280.63461732724437
0.9679920635903384 -17.854849135250774 279.44619849241053
1.8780995028255867 -17.837164998683427 279.17754590255566
2.737055014885052 -17.80729921976843 278.73259726088355
3.643433647462087 -17.79053251716363 278.47605446932005
4.502387228117465 -17.782521407021555 278.3464753036347
6.308451299683437 -17.75017145961523 277.8478645304176
7.261228538124123 -17.74594736703908 277.7700231435973
8.16109160593464 -17.730183429242132 277.5255703039307
8.962735531935959 -17.711229282379332 277.2363866100193
9.912898661109978 -17.706949358956045 277.1567140239852
10.80887473248062 -17.691586563617648 276.91732611688195
-14.093412148475664 -18.93183486064333 296.2937177956269
-13.269999803427224 -18.841431057770663 294.9726382127455
-12.3576908595411 -18.759095391920503 293.76841031199905
-11.533386843738445 -18.643963583879696 292.0878279745628
-10.640450033116657 -18.569569812614276 290.9993634047963
-9.796407462247391 -18.481038348562652 289.7055612369431
-9.0166495782224 -18.408836931116607 288.64967132605494
-8.188912458743191 -18.327223188105904 287.45639121779374
-7.326088831805543 -18.264972613093747 286.54427970392396
-6.5565299680487605 -18.173856544949363 285.21283511431784
-5.795006180796535 -18.08649950764425 283.9358993369971
-4.951943191381755 -18.032340681052194 283.14078873892487
-4.2098956310487745 -17.97590772836835 282.3131712348947
